# 3D point list with one line of data per point:
#   POINT3D_ID, X, Y, Z, R, G, B, ERROR, TRACK[] as (IMAGE_ID, POINT2D_IDX)
# Number of points: 411, mean track length: 3.8326037735849057
5283 4.4500871668991291 -2.5694530705886156 16.517228929440982 74 78 79 2.595756035372204 39 478 41 179 3 90
5074 11.733481170743076 5.6510703943788787 6.0946321853063505 52 56 56 0.51270694839063269 49 4664 41 2413 3 3714
2352 1.3712504550194329 1.4302164909977078 6.4551251888257442 69 57 57 1.5921722136890482 37 4507 4 3880 14 3689
2353 1.5672106518463627 1.5300811449394729 6.2386641230012767 92 93 95 2.3788263450365021 9 5306 2 3868 38 2909 6 5620 37 4514
2720 6.7450172077350938 4.6706037466875836 8.8658231644012613 0 0 0 0.49873214271870442 2 461 6 297
2724 17.694116634320523 -2.2551655945638518 25.512305883336918 4 9 12 1.565974610858802 6 167 37 588 4 277 9 300
4055 22.74386479179994 4.8912588277005984 16.801362171582728 160 141 127 1.0191008357604758 11 699 14 393 39 823 49 687
2358 2.256679277381747 3.7135250657395265 6.8242942440800149 88 51 28 0.807274324806737 2 1609 38 2669 6 2056 37 1627 60 1788
3233 -2.1634095974365555 2.2187258089228559 8.7201604496755145 135 96 65 0.74273791238527842 34 143 5 123 18 182
4048 5.491192122020041 -4.8067285820471559 19.132422614799403 58 56 60 2.1156100437482932 11 1329 39 773 49 2952 41 1430
2362 -3.4138039035350056 -2.6350339175746735 14.998151649117123 122 108 74 1.2126870673306156 9 267 60 443
2363 15.555783117175931 -1.5501450166892925 25.157057909254558 135 131 128 0.61308623260673389 6 852 38 908 9 698 4 763
3754 27.359700671192218 2.7440424266846604 26.072358684165124 115 100 91 0.50420310684303749 2 957 14 1327 11 1395 71 1322 67 918
2364 -1.5084933362344448 0.48727807909458432 7.0436188235300934 0 0 0 0.94420868501797628 9 661 37 654
2365 1.8805482738705277 2.5298677286660674 6.2081090639903787 186 171 175 1.0585012652089933 6 1493 37 1326 38 1202 60 1459 4 675 34 1566 5 4364 3 915 1 575
2732 17.758142130160021 -4.2748859860991626 26.745365733751804 201 99 126 0.18424176968333628 6 367 9 413 37 435 4 338
4063 1.7011924156115958 3.7430546891602239 6.8473769071216672 139 93 61 0.79755747319225723 14 833 39 904 49 1847
5806 0.44296519484360608 0.73748606778421621 8.2195983311012704 87 72 68 1.2162963657129962 2 590 14 615 41 241 3 335 14 414 1 265
2367 4.1529821106202487 3.1537022748811063 7.6749813682203101 183 152 135 0.039858739172075261 37 3191 38 2282
2368 0.42126988082810796 1.67000169681276 9.309166380765264 179 168 162 0.24144625550310117 9 4903 38 3254 60 4032 6 6652 4 4692
2369 6.5376043947998408 2.1293058018597346 7.8494886603487251 154 111 79 2.2530971035213678 37 1259 38 3383
2800 22.131183085253774 -1.4406063082012464 27.101742360106531 69 44 37 0.51417013202232398 6 1371 9 704 4 1223 2 1239
2371 4.083525303403702 3.8030943568153042 7.2709709848152686 127 86 62 2.9218168139824705 6 2984 38 4247
3826 0.41684664298785368 0.45935781154362854 8.7136777621413621 154 129 134 0.363340092183084 14 2542 11 3289 39 2001
3319 -0.56018811691369652 4.0203658208745949 6.3332760634389444 150 104 72 1.3320311377115961 34 1304 5 1930 18 5267 7 2104 12 4643
2373 2.5418571679188076 1.8650692630001615 5.8976971466165375 216 228 224 2.3777769955317951 2 0 34 0 14 0 11 1
2804 17.590707037238044 -0.8907130385619475 24.683892773166139 89 12 24 1.1813272519568272 6 1387 9 1234 37 1523 4 1232
2377 6.6669973085257022 -2.2351660300161615 14.334489325486144 46 51 55 0.3702900635726063 38 94 34 50
2808 0.42913644164495723 0.40049412365729331 8.3622935680979751 134 118 119 1.0422473741950211 6 4398 4 1247 68 491
2378 0.60450373113497224 0.06313758407031568 8.2205049637666221 196 212 211 1.2634885219164043 38 57 60 55
2379 3.5357838264792134 0.40616630386455099 5.8822863202868838 196 151 145 1.5165907644831635 9 500 60 56 34 32
3834 2.2232835324789839 0.92880308823640645 6.0324231467656722 113 142 178 2.2771245776451146 2 3138 11 3419 3 4849
2380 3.5259155837292981 2.4224327616304291 6.2070372007305448 199 203 202 1.6580167384000652 38 76 60 61 34 59 5 35 7 28 18 32
3327 -1.1551977857166378 4.0607584419194112 6.3207301555663884 180 136 107 0.19940351291113076 34 1038 5 2034 7 3042
2381 6.189434615663906 2.3994497621772304 9.3037337359024121 95 61 36 1.5206290565174749 38 227 60 69 34 73
2812 1.3515751695743878 1.8461295427988773 6.5917125870646061 198 216 214 0.44503005447295668 9 1308 4 1296 39 940 49 2114
2383 -0.83072496902650539 0.81964290521070415 10.445084596484923 127 93 65 2.3382046258297504 37 82 60 80 34 129
5315 1.3667419049117402 -1.2318315902706707 8.2154137318462794 71 39 49 0.15516198054998517 41 123 3 92
2384 0.060563833689720036 3.3245667474727729 6.9460323253229541 160 107 63 0.092602177621757764 38 100 34 101
2593 4.7709468757524798 2.8960518252970169 7.8967599094503038 178 140 121 1.7942318806572193 37 4677 38 3662 60 4740
2385 0.39330901162253723 3.7318725671287512 6.7147320927228273 122 84 48 0.81543442279679279 6 100 60 102 34 109
2752 20.851504980139392 -1.3998890984998711 27.151211013649331 200 175 163 0.31350258773477674 6 496 9 509 4 490
3110 -2.0057221752435872 3.6554165135957293 6.8052072362796849 140 94 60 1.6337030684583325 60 899 34 724 5 1274 7 1230 18 1798
2387 1.4422571670304116 1.4511414002319278 6.3806756591205698 149 148 154 0.52446195705402965 38 130 60 135
3778 0.39368565678354883 0.5532843747392312 8.7923188766922049 195 189 189 1.0263485023537771 11 2068 49 1329 14 3650
2388 -1.4748783219557404 2.0157867473475712 8.928075728045286 137 99 63 0.7089083360158146 38 138 60 142 34 139 5 120 7 112
2597 4.2673896969973732 3.2006363060199647 7.6725720951523986 149 116 99 0.75542625952637155 38 4054 60 4923 5 3848
3271 4.2748966838342124 2.6629411735371309 7.3457818135499133 96 65 48 0.33069789637645808 34 541 5 690
2389 1.2706311890998332 2.5662629697152028 7.1936809249416092 80 54 37 1.6980052400187282 37 1094 60 149 34 241 7 1087
2756 20.813268766605781 -2.8289787083938864 27.564446463773777 112 11 43 0.12841355550858452 9 486 4 571
2760 -0.24344420716410714 2.3131836919725322 8.5513700785251601 83 56 35 0.2504813511082456 9 1336 4 668
5333 25.798975839535291 7.4498709142892929 14.393565328041884 85 81 69 0.28503078818133204 41 272 49 263 3 276 1 262
2394 -1.663994088814875 0.76158634533360514 9.6704845838385811 139 101 65 1.1955296793684591 38 187 7 445
3627 1.5659983772531103 1.3720697466632705 6.2240205073957542 97 79 79 0.90061131095040303 6 5590 14 4603
2396 -2.3714752271239674 1.0154057063277726 10.23067159655408 162 119 71 1.0264803374736513 9 109 60 183 37 112 34 165 5 155
2605 4.4653068766360597 3.2981718343372326 7.4024941989928665 184 139 120 0.383331388061179 38 4952 60 5091 34 2551
3279 -1.907514426190531 3.6397486096647 6.9184456376115495 147 94 60 0.66308598901950988 34 551 60 500 5 763
3273 -0.87996649787241721 4.0081439000048533 6.4382268447248983 157 105 67 0.65993048312923641 34 681 5 701 18 807
2399 -3.3408558343590027 3.2999219896769638 7.4901855998112099 162 118 80 1.7979455007480751 38 212 60 232 34 238 5 178
3116 5.0649044584807239 1.0956070091777115 10.272572732675677 130 98 77 0.8401570504192245 60 791 34 772 5 774 12 399
2400 4.5354007215232244 3.0033396892635142 8.7417406025833984 118 89 78 0.21599392366904244 38 333 34 226
2401 -3.2389713836958718 2.6922775321195127 7.9005637174236512 168 122 86 1.156746441758401 60 245 34 243 5 259
2704 18.034128875850374 -3.5633398701727148 27.15227066347483 85 84 89 0.15161765878676936 6 151 9 147 37 145 4 89
2403 -3.4198926502278688 0.98082150450423644 10.037075360578486 169 121 81 1.5428427307686574 9 112 37 179 60 272 7 279
3730 3.3387007684646406 0.45792795108061624 5.3956196482505865 147 174 198 0.094194917740417994 14 1057 11 1113
2404 3.3831464187313602 0.76239987206073645 5.6498667510539313 135 155 190 1.8401609549345479 9 1243 60 279
3223 3.656822005802244 1.4356116590938657 7.5194961351695584 199 205 201 2.6230281978427969 34 16 5 32
2405 4.8301153327555868 2.3305390001820512 8.697949827970989 119 78 60 0.54451559079692613 38 253 60 280 34 329
2708 3.1181962201594029 2.6555299593350439 5.7379028889625614 160 153 143 1.2302816008892334 2 247 4 129 14 428 11 632 39 924 49 2165
2409 -4.5889042824246937 -3.3660054293481783 17.551968146560768 15 18 1 1.1470289582034268 37 288 38 308 60 301
2410 1.3149562394699077 -0.62845143900544587 6.1357977451585626 110 103 74 0.33705598325268116 38 159 5 27
2411 6.9715023654969048 -3.3800430340144016 14.538489245826408 103 113 115 0.08497587131343276 37 304 60 310
3738 0.73041347237673948 0.88092538427019851 7.9756243617402438 57 47 46 1.8981275436150644 14 1394 11 1182 41 1216 3 2248
2412 1.6669211164593123 2.419803306189602 6.4297025754634607 195 176 185 1.5291694845888468 37 226 60 327 34 350 5 634
3231 -4.9839817661953774 1.8094564169840361 9.0951771398881185 156 110 76 0.98317161465085012 34 80 5 110 7 150
2413 5.2924502535639544 2.5078986490682116 8.4949467469627855 115 84 64 0.83999022331400364 38 248 60 328 34 230 7 199 18 153 12 154
2716 0.39272159706243637 0.7672093993035406 8.6472001700770917 172 149 152 0.99264277367904397 6 533 4 219
2414 2.4205445472665943 2.5393402129179683 4.7241204095446658 165 152 146 1.8973851330567673 37 386 60 342
3225 0.71404941847175651 0.17358397038963577 7.7353777492088343 208 222 223 2.2380645762606441 34 54 5 52
2415 3.8374332141679153 3.0957734754188695 6.9016130595864302 156 124 111 1.5151093607170201 38 329 34 300
5347 6.7081786729053405 5.0801786370393431 5.1875741289905939 155 101 63 1.1010592056946629 41 250 1 341
2416 0.88528465512965049 3.9260408397142279 6.5723713160677502 147 98 65 0.9947161176107322 6 203 60 359 4 205
2417 3.3050540193608491 0.91563898697676716 5.4869473151061907 150 169 195 1.1037796727740885 6 396 39 1919 41 439
2784 20.827339321366757 -2.9576134814018169 24.914949775216851 101 100 100 0.29499709306565169 6 894 9 732 4 804 14 719 11 748 39 767 49 742 70 756 64 448
2419 4.9338118669499336 1.514168321860494 9.7801458944914188 149 115 90 0.34763605372047546 38 374 60 383 34 295
3810 0.72578632515297004 0.93812917932082451 7.6827396079516133 80 69 70 1.7608885818078142 14 4615 11 2925 41 1888 3 1102
2421 3.78888353349081 2.0425628630348478 6.578032223285935 149 100 95 0.11179482223891125 38 385 7 3162
2788 18.306751260070314 -4.2167924779324952 27.047035618978587 16 1 5 0.49976478598583618 6 903 9 478 37 481 4 812 2 636
2422 4.5370541249794298 2.3252678075744462 8.7420543798466248 149 113 99 0.96910359206576679 38 387 60 393 34 330 5 256 7 327 18 3533
3297 -4.1244179319545502 2.1608766442706093 8.8097486512048544 134 91 59 0.74064496033714677 60 812 5 1184 7 1172
5365 4.6577162553814793 5.2256967450635292 5.1094431544174865 118 73 34 0.51992738582646847 41 841 3 570 1 837
2426 2.8817039833303406 1.2802742557176108 4.818264112653039 218 232 233 1.3441763968169811 38 792 60 428
2427 3.650740315954129 2.3844785231775818 6.2418059728055031 91 64 55 2.7128252134776587 38 245 60 433 5 717
3818 1.98398076742595 2.4766582285028842 6.9002120951417671 202 173 178 0.13231598325805718 2 1767 39 2087
2428 6.8787566519086978 -2.8215739214505424 14.031879124399612 86 96 98 0.18766427827870166 9 466 37 463 60 441
3311 4.3691969767741261 0.50675490344854957 10.964504013249936 174 131 124 0.52411876962457293 34 1217 5 1448 7 2715
2429 2.8806325978306102 -0.067628797441734098 6.2486989120700747 109 168 224 1.3233653292282672 38 373 60 451 34 273 5 281 7 103
2796 17.570449437268948 -4.3345365259901945 27.790788443697597 173 41 78 1.3921946728349404 6 1324 9 1180 37 1455 4 1201
2430 1.0838656860840026 -0.15187288676973926 6.9855042057148404 213 228 233 0.17619100272037852 37 441 60 453
3305 -0.8307201691259356 3.8732835098303551 6.3937934166738213 192 138 110 2.1346120596082812 34 1209 18 2067
5870 1.9069699713973358 4.7122981118415685 6.3610240466132 122 76 43 0.58160898143522965 41 1501 1 946
2431 6.0065860159748725 -1.2629461217951718 13.627507201055664 165 121 102 1.1814618309208351 38 165 60 455 34 412
2432 4.1212644637605544 2.6340890424805798 7.5558498553409486 88 66 55 2.2092218672780453 38 1196 34 552
2577 0.11705671875897894 1.5887118220511649 9.3088082442127824 116 151 176 0.2511921112131868 9 3453 60 4010 4 3628 14 3819 11 4046 39 2687 49 5050
2433 -1.4457347478181539 2.9930923958126536 7.522856395281929 159 116 82 0.30788579530214311 37 392 7 480
3094 3.7671275601993002 3.2287469315760173 7.55160612396228 91 61 50 0.46035718858129338 60 888 34 522 5 653
3603 2.4506727694742545 -0.80925306049440326 7.3512796825369113 20 37 57 0.039113373559837447 2 1218 14 3881
5136 3.0169174906064811 4.4657092890195429 5.9728071714550444 149 103 70 1.6577151356357722 49 5380 41 2823 1 2988
2435 3.7042333320840877 2.5283137594145497 6.5662939024489368 83 57 47 1.6597903444491318 38 395 7 52
2436 4.8934965550496479 2.7835970385310214 8.1371806911752369 119 81 60 0.86579850928201163 38 564 60 485 34 535 5 578 7 401
2581 5.1406404734493876 1.9289785755407896 9.0782953518085456 186 141 112 0.51488319947110861 38 3287 5 2588
2437 3.4661467943601423 2.6309700441499171 5.9891066825324106 93 66 55 1.3423027366806772 9 598 4 290
2439 3.1272483661265311 0.76488527647101801 5.5050810532437735 104 145 197 0.67616647001053587 38 517 60 547
3092 2.9866620192172286 0.52925816276358917 5.5739604867836618 56 114 178 1.0848094070606797 60 1063 34 472
2440 5.9260216996615496 -0.54596795382207852 12.436147697599846 134 92 70 0.56539520716571756 38 505 60 558 34 415
2585 5.6395806576785992 2.7017153711247124 8.4889531751418659 184 138 104 1.4387819580121228 38 2086 60 4600 34 1962
2441 1.4609860103333323 -0.61188773134494245 6.945984737545924 108 164 225 0.94023568889596365 37 474 60 578 34 597 5 480
3102 -2.4801992274419957 2.5580232405358316 6.6007358288409828 135 94 62 1.110892622778628 37 387 5 350
2442 5.5841437264108409 -4.4474328537756875 18.327661661128886 6 6 18 0.086253416010638059 37 459 60 591
3611 -0.017928410065872934 3.420612298941371 7.1340539728975489 160 115 82 0.46389766053859044 2 3693 14 4142 11 5164
2444 1.4432546800455135 1.7732514354978886 6.4267689601336011 147 149 150 1.2695562664187439 38 420 60 616 34 581 14 421 11 547 39 594 49 407 41 341 3 339 1 352 67 276 74 544 68 387
2589 1.9210587074179257 2.6913495977620325 6.1617910986355078 206 199 200 0.83977232540228663 6 3568 60 4671
2447 0.37271478178825956 0.77315786580262624 8.5046675380514998 147 105 65 0.4341817614991203 37 1228 60 661
3100 4.1149900943947761 2.8075771483497221 8.1558835847267712 109 81 75 0.4042686079415671 60 483 34 548 5 597 7 581 18 590
2448 -2.3340614603550494 0.099296494051490644 10.057908398510483 128 90 54 0.26105351976961522 38 1108 60 721
2657 1.6038817099597329 1.020059937919481 6.1040442408309454 182 190 194 1.1083073488146034 9 3946 60 7643
2449 -5.0050848242708801 -2.2522413810034156 18.449234148827717 25 15 14 0.06692875507310489 9 513 60 722
3174 -1.5707089172975122 3.674336429088406 6.8537386158464519 177 131 97 0.40881761743455086 38 1646 34 1943 5 1579 7 2791
2450 6.1975980643862298 -0.57962313204592009 12.089892012756025 131 94 68 0.2628813290605384 37 4318 5 809
2451 -7.5155065392666645 -1.2906836526356822 20.316337499760909 48 37 7 1.9586741427135936 37 329 38 516 60 725 34 408
2452 0.4527722275354823 0.08144521792312602 8.217673119136748 134 101 68 1.9257800892603412 38 336 60 727 34 410
2661 1.396931112674378 1.5916081906949566 6.4929508192276701 73 61 62 1.8917441522733902 9 3994 2 1816 6 1437 37 2172 4 4619 14 1678 11 1067 60 7488 70 1745 64 945
5146 2.1533518237999409 4.8481791529557015 5.5035818923726962 182 127 96 1.491118798248283 49 2664 41 3006 3 5610
2453 -1.7233855099012234 -5.1987884260356312 20.441431125460621 162 167 140 0.88132783388829128 9 769 60 745
2455 -1.4117994262471869 1.5600808492029832 9.2804851085363538 147 112 74 1.1413694754974555 37 611 60 794 34 786
3172 5.2025010025683436 2.4030749262121929 8.6440465769567165 136 86 63 1.7244576317652158 38 3457 60 3376 34 1887 18 2472 12 2152
2456 -1.2751292752131571 1.6213060509974317 9.4637648412279685 154 115 76 1.3879570487281376 38 853 60 795 34 483 7 763 4 545
2457 5.7345409808257513 1.4141820230254583 9.6742383827353731 157 117 91 0.062084592859472154 38 999 60 802
3182 3.2105706758654646 3.4653914723016737 7.6310661719494233 139 112 94 1.9529424638652388 60 1623 34 2130 5 1692
2458 -2.3402997287699052 1.8700687990303739 9.346343645931972 164 120 83 1.5347373029465097 37 1290 5 805 60 804
3691 0.65451682161092206 1.8556197408171633 9.1690194226264623 116 80 64 0.88495992530527801 14 497 11 408 39 580 3 555
2460 5.5097056611945829 2.4571793262345256 8.4407220754542962 128 89 56 1.6085919710510552 38 1179 60 840 18 973
2669 5.6643824084026848 1.5048201548578684 9.7535841772234502 126 84 59 0.26381918395804549 37 345 60 384 9 458
2462 4.9312922266590915 2.6652589300189051 8.4544511465100385 85 56 42 0.32129061676091392 38 826 60 851 34 726
2463 5.6311408670706395 2.7169518106052784 8.8912278744667894 142 96 63 1.9910873220677112 38 827 34 542 5 582
3180 -0.76264984718321505 3.9685514654429612 6.5672543056115238 175 125 92 0.8887062877673525 60 5676 34 2123 5 2040
2609 0.1493369965909668 3.6054854184487457 6.8865173603307026 123 79 44 1.7219459702421471 6 5352 60 5219 4 2619
2465 3.929172908291394 3.0714531366820155 7.7647573042258982 175 150 145 0.19984082942368694 38 713 60 875 34 695 5 660
2768 6.3535183805363538 2.0106956778537226 9.1543553234387289 112 82 58 0.30499113127792854 37 941 4 727 9 727
3126 3.3472176753200555 0.20793711511984578 5.2990675472555839 81 127 179 0.84522208908894936 60 2009 34 865 7 1179 5 1174 18 2835 12 1026 15 1863 16 1223
5168 11.876152387878635 2.6542973572441149 6.8701536450656251 40 42 39 1.4288288469396369 49 4599 41 3411 3 4751
2467 1.5123222015678131 3.4765701645175664 7.183765543103986 129 85 60 0.85050208535736627 60 895 4 613 34 612 14 522
3794 0.49167276533125814 3.7585839986270506 6.6747262721591998 194 160 138 0.43770061798047033 14 2240 11 2546
2468 0.37969753841974424 3.6287151133474276 7.0730840243540403 120 73 42 1.2438900546449483 38 747 60 908 34 694
2613 4.313977706005482 3.4827008834076127 7.2667975435291519 140 102 81 0.24749017461150394 38 4034 60 5332 34 2664
3287 -0.15185725590737983 4.0200329250406464 6.514376200505799 201 159 135 0.65188951795142269 34 1047 5 964 18 2299
2469 1.9346700290953602 2.3152096719128266 6.0221679702983613 199 200 200 0.35265968261080927 37 908 60 971
2772 16.627122736234544 -0.63734107742620927 24.423728210582269 83 10 22 0.92174941182911718 6 1394 9 1239 37 668 4 755
2476 3.3894693232071775 0.47431877872903139 5.5281511198165934 102 118 143 0.17960163217634623 60 1058 5 510
2621 0.20534325809641432 3.421149029835703 7.3113395927254059 124 79 38 0.73948966878903144 6 3127 60 5877 4 2503
3295 6.1134365341575201 -3.1639758221412144 16.406952015068022 76 82 82 0.57649135857402189 9 762 5 1162 37 739 60 1033
5695 3.6506400252650755 3.9765879726253015 6.5441969135264966 139 89 49 0.59322816176390258 41 3697 3 4105
2478 1.4705103514297069 3.3134502890912643 7.3628161896969608 135 91 66 0.50457532435949304 2 1101 60 1079 4 2154 11 1294
3289 -0.7599582455609788 4.1397117390426521 6.0723901508594755 200 157 126 2.4426242704359931 34 1367 7 2085 18 5297
2479 5.1214909039314245 3.0936652625963292 7.4803121275683457 150 101 71 0.03549197395804754 37 1337 34 678
3132 -1.9417577731349343 3.6675315829359758 6.887637522511179 173 127 94 0.87750775177851936 38 1640 60 1192 34 967 5 2574 7 2750 18 4685
2561 1.5785312996169301 1.6181089087483687 6.2905324236142119 58 52 53 0.0097872543614820513 38 2919 60 3640
2481 4.982518462875893 1.4315078218500255 9.8634626922677615 110 81 63 0.84166587418965255 38 866 60 1104 7 1253 18 637 12 622 15 366
3078 -7.9142235716683071 -1.5591406651045689 17.229742047880229 47 57 138 1.1439999316272373 38 451 60 565 34 359 5 851
2482 5.2370068667491321 1.8684185799032622 9.3585158233542138 146 97 67 0.52702528292659656 38 1140 60 1134 34 911
3587 0.39401892168812497 0.81451159704754184 8.6979859913248827 176 139 146 2.0597608049513032 2 3253 14 3682 11 3522
2483 5.2494492669952582 3.1650823060773745 7.7332037138419336 187 138 108 0.21069374844332903 38 1563 60 1135 34 1280
2484 1.5035907115703064 2.0552197286381921 6.4728499259591361 168 123 136 0.94016450012070651 9 1322 60 1145 4 1306 5 1483 3 2294
2565 1.4645600260714282 1.3278035361033114 6.3186527963109143 87 75 77 0.26371773740810805 38 2882 60 3750 34 2758
5178 2.3840157914446021 -1.198587238418175 13.144509555487732 148 108 83 0.92838776368160314 49 3558 41 3477 1 1963
2485 4.9737729866100402 3.2215220003399447 7.6223863788616875 145 96 67 0.57869359414925226 38 1230 60 1163 34 671
2487 5.1375483687938202 2.7697728000191044 8.1495200050315013 124 88 62 0.3681434775582989 37 1997 60 1182 5 988 7 1024
3076 -4.965429965951893 3.0987241318412875 12.026337519359737 152 114 78 1.8001737507123876 60 391 34 341
2569 2.4474193907105484 -0.7650803866712732 7.3041690868662936 27 36 51 2.2973500518307532 6 5455 60 3921 34 454
2490 4.7467996462388191 3.3478660874994088 7.2974542292154725 182 136 112 0.78506589731985277 38 1252 60 1207 4 2279 6 2386 34 1078
3595 1.4489006766949679 2.0993576812741801 6.6002927231015152 188 158 160 0.12132704748656131 2 2771 14 3767 39 3445 3 5265
2573 0.73309007937548676 0.59722042913912043 7.4423993545311804 165 170 182 0.1888832234291235 38 2852 60 3955
2494 5.2099063955057856 3.1708862756767098 9.2153317493022193 145 99 75 0.68735043382551342 38 1736 60 1335
2495 4.5273941979060526 3.6637618522831783 6.818877493947169 216 167 137 0.27367976207675859 38 932 60 1361
3084 1.9875749440621342 -0.92960258897502301 7.4374470095205503 56 106 165 1.39235007675984 38 471 34 400 5 643
2496 5.3600102893350199 2.5156258973880536 8.5317010243286902 92 65 44 0.039403451767755546 38 1814 34 1531
2641 4.4393093067702107 2.6624708947580324 8.249805592952244 153 124 116 0.20808917150196884 38 4647 60 7015 34 2952
3878 0.48288208798473015 0.37332596562444254 8.4268976543749492 143 127 132 1.9340796605624726 14 4567 11 4343 3 3920 1 2732
2498 5.0070983394019368 2.4986387330142845 8.6007600644288598 151 106 77 1.8621906014317104 38 2049 60 1422 18 2457
3667 1.4449361312636742 3.1261057889880335 7.5633955557113151 125 81 54 0.9226484215109032 14 141 11 91 39 131 49 138 41 82 3 96 1 106
5921 1.5442654866722152 -0.92958706114028555 7.0869301897960417 37 79 134 2.4420685559226354 39 2516 49 2956 1 2516
5200 5.6248539566149791 5.3943630393171933 4.9126233770951577 124 74 37 1.9048373030708277 49 5577 41 3671 1 3707
2499 5.2004045880737584 2.5435263397197549 8.5099136637934105 177 131 99 1.1175893243070845 38 2057 60 1436 18 2608 7 964 12 753
2500 4.3965062438122509 2.8360917955524481 8.0377761313700589 170 142 131 0.33879338935817044 38 1752 60 1493 34 1287
2645 4.6122846248833902 2.4189305011300504 8.502746839468351 129 94 75 0.1022823112745183 38 4598 60 7090 34 2916
2501 1.3422700807663785 3.1334784944973464 7.6060968866305076 92 57 35 0.56874395796725485 6 2296 60 1525
2503 0.40756376407419881 3.3289247258283785 7.2691104027601234 104 63 31 0.22004143810872839 37 967 60 1564
3156 4.5471668200310926 2.7740792028165342 8.4652249765517222 96 69 60 1.3579055661758772 60 4598 7 2025
2504 4.7642491370202062 3.2170629232178021 7.6075117086165269 138 92 69 0.89167564725497961 38 1702 60 1584 34 1272
2649 4.931208881816957 1.9153271402734175 9.3056630400288185 166 115 90 0.51667309778259618 38 4451 60 7358 34 3212
3886 0.41174303589007466 0.67594655952849514 8.3241671243336128 100 76 80 2.1027149682913602 14 3660 11 4405 49 3754
2505 -0.81104547799312976 3.5117601352021794 7.1297661128682339 171 119 80 0.2984359916561149 38 1515 60 1585
3166 4.8481968209595685 1.4201441353685846 9.8323558987771946 123 85 72 1.3143034797708055 60 4021 34 1777 5 2446 18 7228
2511 0.35193451079245025 0.71998260393608937 8.6372746053207976 138 100 67 1.6360343310862426 6 4424 60 1935 4 3124
3164 -0.89309042397303773 3.8945630217741538 6.6267152394514186 170 120 87 0.23890742383562358 60 2427 34 1650 5 2093
3885 1.5970095032383558 1.5050434452281143 6.2547474483667163 96 81 82 2.0480947657296542 2 3758 11 4403 39 3305 49 4745 41 4151 3 4974
2512 6.2686641880367482 -3.0679397644615021 13.866557454394409 82 87 90 0.11392485894329582 9 781 34 1132
2721 -2.4657061879522848 -1.8561620459342369 11.711654504952005 106 100 66 1.8631128582794214 6 466 4 271
3894 0.42729577517132133 0.95088323771771344 8.2325928169126321 202 167 173 1.5466168239714058 14 4645 11 4463 39 3706 49 4889 3 4009
4912 13.755337064134507 3.3861656237253199 5.8932042151760493 52 58 58 1.0320384425739593 49 3474 41 1056
2514 -4.5105862721852779 -3.5926279660205078 17.399421268809281 199 210 192 0.46132470458085878 9 1462 37 2647 60 1983
3747 1.1799996005466029 3.1377941748105971 6.5375203891948592 110 65 36 0.53462511131723356 11 1299 39 1602
2516 -5.6967737287543168 0.45708485012729139 11.902711287687811 109 73 57 2.6384597851285729 38 1122 34 866 5 1403
2725 19.617772732937311 -2.3466173243737183 28.690508733095996 148 138 111 0.29945330979825446 6 255 9 257 37 218 4 278
5210 4.0412463484310761 5.3434702620983554 4.9147654526286342 156 101 62 0.97219979437707948 49 2390 41 3780 3 4231
4907 36.309848720513472 0.41774700551767951 26.480245633169755 51 47 54 1.5792875012911256 14 1279 39 1167 41 1042
2517 -1.7263944738938684 1.8248801256946761 9.4190517205410664 167 125 83 0.58431813963286672 6 2515 4 1328
2519 0.054917284878833725 1.7971109212491005 9.2469575428771655 105 76 62 0.76559342173485556 37 1274 60 2094 4 1163 11 592 1 787
3236 -2.604956155739655 2.3863751686393835 8.4276772939726836 137 95 69 0.13744462076773467 34 185 5 165 7 176
3893 1.4917626536990789 1.6587537046567731 6.3846029443822445 151 142 143 0.86983299552314253 11 4455 49 3733 41 3577 3 5071
2520 5.5251517757952886 2.0286570785360847 9.1566817419215258 129 86 63 0.23972162602763358 38 1886 60 2136 34 1598
2729 19.523792001268898 -1.4468321199706569 27.390490569279962 6 4 5 0.98826205549464397 6 389 9 252 37 272 4 316
3902 1.821759975069303 2.1845498289432586 6.0545597891974854 173 143 145 0.25641409123765291 11 4522 49 4877 3 5140
4927 8.8624858473448658 4.4273978689871862 6.1262333800930966 120 75 41 1.4296251051159501 49 1253 41 1135 39 860 3 1540
2521 5.3413570272566639 2.1922003632202554 8.8171759169595223 113 69 44 0.22716904037231633 38 1858 60 2158
2526 -1.5390480159259077 -2.9085943843880537 13.694762148209222 138 150 130 1.1942006021245892 60 2280 4 1463
2527 6.7407915342768936 -3.3298600828283544 14.360877128660382 120 124 125 0.31410132196937895 9 2692 60 2353
3244 -4.0092091360069029 3.2575381904936038 7.3683046372494987 157 117 85 1.2452251197336637 34 337 5 249 18 265
3901 1.7718912100040531 2.1389269406782017 6.0889936484149292 223 180 191 0.019434267538464021 14 3748 11 4518
2528 5.6421077363534167 -4.3931940837977193 17.736376814299852 1 3 15 0.86874792673815548 9 1432 38 1319 60 2371 34 1128
2673 5.1387513233982203 2.8332856566476528 6.8693740235429042 146 98 65 2.8686197697551483 9 2089 60 1019
2529 3.9605715797119205 3.5918056820299902 7.1595155318956492 110 81 67 0.26982555826271232 37 2304 38 2538 60 2534
2530 5.1131730874809849 3.4335205152417543 7.3936398697898644 142 93 63 0.85801200587148718 38 2416 60 2665 34 1416
3699 0.50151679165840268 1.744010238698116 9.2645020317417401 237 238 236 0.60063643903652653 14 499 11 602 39 644 41 831 3 628
5232 0.76617097391778477 0.71258890656213458 7.2898085229319465 115 96 98 0.41524089108243706 39 3283 41 4157 3 5007
2531 4.5232684160135577 3.4614489882115391 7.4378830076345039 139 99 73 0.28129925192783939 38 2748 60 2690 34 2276
2532 3.3578620569196693 3.4619804543122679 7.3161410876826043 97 66 55 0.80669126169891081 38 4023 60 2740 34 2514
2677 1.5248424776819993 2.0989184756040586 6.5562315100472643 213 193 202 2.8561462716384023 60 1149 34 906 11 3024 49 3246 1 2793
2533 -1.7009452811421948 3.6668579726132697 6.8675923789856776 182 134 98 0.72015400137318475 38 2699 60 2783 5 2600
2534 4.4266539923819428 3.3450561773958802 7.3783591429998641 177 132 111 0.59057704538221933 37 3285 60 2784 34 2226
2535 0.24062147820927746 3.5031809812521222 6.7862852852597069 124 78 45 2.0850441424898984 6 3208 60 2791
3188 3.4857324397093175 3.5423799309115833 7.1963950762662705 106 73 58 0.55084528480159956 38 4106 60 5345 34 2606
2536 4.1042245953405416 3.2260315068941408 7.4516454045465137 190 157 140 0.72365798339911347 38 3825 60 2915 34 2127 5 3247
2681 3.2536995088837508 3.7049388053364725 6.5389782829447807 110 73 56 0.74953426962960457 37 1013 60 1872
2537 4.5907038950159329 3.1558481674124472 7.6120967473478007 184 142 117 0.7669943925252849 38 2284 60 2944 5 1811 34 1235
3198 -2.1040386248900811 3.6140717371645961 6.7690761290755477 140 100 65 0.85717110002028329 38 2691 5 1269
2538 4.4562261476775609 3.1664493970586403 7.6669846994456066 199 161 142 0.40482252051750073 38 2286 60 2953 34 2110 5 1777
3707 1.0134731520795479 -0.76698852208982948 7.5673622510678245 138 182 229 0.64989240540587823 14 679 11 719 39 477 49 526 41 524 3 443
2540 4.1438172752831202 3.0166676776866099 7.803918984588802 148 119 111 0.12950319405304159 38 2239 60 3082 34 2022
2685 4.9440206507134272 2.8308814242690641 7.8554669850703309 182 141 114 0.3531601058272561 38 3624 60 3159
5759 1.5792119642495133 1.537144461149436 6.2288799661562377 115 96 98 0.11955440692609458 49 4755 3 4996
2542 5.2207673849213183 2.929000521570142 7.9760714326052993 170 125 96 0.83894362967469649 38 2180 60 3120 34 1148
2543 4.6806724320943891 2.8712890599830749 7.5574132565151784 186 142 117 0.33137219712956806 38 3680 34 2712
3196 4.6470976403382966 2.5038345206593018 8.2955848305792621 106 73 56 2.1959018147896412 34 2938 5 3651 7 3407 18 6063
2625 5.4062209935360501 3.7325431250991583 7.0282419233394231 169 125 105 0.20402740174511078 38 5329 60 6247
2545 5.4281198709391543 2.823956806042454 8.0989184898517337 190 137 103 0.90088189601509283 38 2137 60 3166 7 1801
3142 -7.9253284081770525 -1.0108545885362921 17.416596776814924 11 16 47 0.3110741409071443 38 1103 34 1138 5 844
2546 4.6875326218048841 2.8494398010072031 7.9589567019549481 117 80 57 1.5262071427358446 37 3064 38 2155 60 3170
3651 3.4852151866620762 1.2634760586427205 5.5589396120746581 122 93 73 0.024628490685966828 6 826 3 293
2547 5.0244219129639287 2.8111725858945791 8.0512756690102929 177 135 110 0.18107268508187865 38 3604 60 3193 5 3103
2548 5.5374892784639211 2.711747170004374 8.1310081185085803 131 86 55 0.20920963188643715 38 2103 60 3228 34 1992
2629 4.3809291477340944 3.4378738672568279 7.353608758985116 186 145 127 0.45718780808106468 37 5103 38 3984 60 6430
5242 1.53849224969913 1.9946772722637598 6.3752080959784188 188 156 158 0.29196144651146516 49 4885 41 4284 3 5197 1 4510
2549 5.4774583447577214 2.7351158812951906 8.2770959676400988 122 84 61 0.29037837394661503 38 2104 60 3233 34 1978 5 2226
2551 4.5896144323217003 2.731554897837865 8.28018984486466 144 116 104 0.60255495073301601 38 2112 60 3261 34 1519
3140 -0.82884660068512239 4.0936901860271897 6.8250890092282388 153 103 70 1.9158179655953431 60 1357 5 2026
2552 4.4964204194312218 2.7142110249440301 8.2575453819585007 162 136 123 0.2432984972413782 38 2105 60 3265 34 1926
2633 3.8647503973688586 3.3101420958290428 7.3490005842132344 133 100 83 0.76843557458354572 38 4982 60 6600 34 3387 5 4532
2553 4.1983537582453838 2.7233059023531592 8.199332330726719 80 58 47 0.47108687368717783 38 2113 60 3266 34 1527
3150 -2.5623200528656809 4.0100431628666744 6.2711140719890448 183 129 95 0.59978134486703794 60 1843 5 1296
2554 4.7070773630135703 2.5947175576931705 8.2868861940176384 163 133 123 0.41172173708331394 38 3522 60 3312 34 1915
3659 2.3625612636653779 3.8245611977685727 7.1196002043907933 107 66 44 0.71672053792153712 14 3 11 5 41 4
2556 5.6897487058495697 2.346288834390057 8.9000630867317803 145 109 85 0.51796148829239541 38 3058 60 3390 34 2927
2637 -0.36817113841064431 3.17513319579075 7.9060081862509675 117 80 54 0.44680218118009046 37 4152 60 6916
2558 4.2403891533003506 3.0538978497722744 8.3461095027850813 88 60 48 0.33191826555007437 38 2212 34 2002
2559 6.0087680668930403 1.9437771019530534 9.4126056969237055 121 77 48 0.4266854318618184 9 3976 60 3539
3148 -0.26348885136381217 3.9001659629869185 6.6127415620273569 162 117 84 0.33286059566735604 60 2357 34 1239 5 2946
2560 1.3806387999831682 1.7601139776452335 6.5255837457741031 133 124 124 1.2788789872753448 38 2962 60 3605 5 3974
3506 1.9565839071553512 2.692766496110143 6.2352961937492113 212 204 202 0.6066798645321686 2 1731 14 1915 11 3080 39 2670 41 1827 49 3292 1 1833
2564 7.0889621836530319 0.35170209489983489 11.292371226606869 110 87 69 0.21918023765820915 9 2835 37 2737 60 3703
4023 22.633858230212166 5.7861934841941842 13.907741527623603 142 116 91 0.98396243336637712 11 2799 39 484 49 546 41 676 3 701
2566 2.5835396749320965 -0.62694623710273212 7.0554524554171012 14 19 35 1.6737439876392624 60 3780 14 3569
4017 3.8835526697097302 -4.2998604708206258 20.91510731459876 189 142 122 0.99652646904962905 11 322 14 268 39 432
2570 -2.5407493518796427 -0.47094159036008137 11.942724065964599 45 35 23 0.73997086824565539 2 1278 60 3939
2571 5.6220274160817345 -0.60680389079570074 12.515578293242212 117 80 62 0.15168940219631616 38 1372 60 3944
2572 0.41089309118531259 0.18659938627767464 8.4833627238783702 199 193 192 1.3626302811283186 6 2584 60 3945
2574 -1.3087767334770255 1.2011819072208789 9.5056533476795746 128 85 51 1.9750906730026134 60 3983 4 1636 6 3874
2575 1.4822209467711782 1.3043548573423449 6.3129831833406875 64 50 52 1.7374096124662246 38 4381 60 3988
6019 2.8712497485312158 -1.3486954036130883 13.26437481169207 64 43 33 1.3550019886991733 39 1358 49 3009 1 1984 3 3743 41 3462
2576 6.5890521759929701 1.2094851430938107 10.174832216419446 152 116 90 1.5649186475769825 38 3208 60 4001 4 3095
2580 5.2923665155459734 1.8803064831838754 9.3034149483332005 176 127 100 0.93986085407548459 38 4441 60 4133 34 2832 5 4141 7 3132 12 3611
3975 8.3158439960976906 3.6168618208264189 7.1305271926144185 107 80 53 0.39221266199953231 11 62 39 96 49 98 41 103 3 138 1 136
2582 5.3994941608434992 2.3563197211588847 8.8388612411857643 175 126 98 2.1739954169158997 38 3064 60 4407 34 1564 18 2488 12 1371
3969 1.5457423661308902 0.069669740749557202 6.4098591765727351 225 237 237 0.71206333899090124 11 41 39 58 49 67
6037 0.60632725622846073 0.74313252273038488 7.8239640282612051 71 57 57 0.52030924026213343 11 2905 1 1189
2586 4.623534152862268 2.7578287115228104 8.3557905476416074 91 63 51 0.5616818427689535 38 3570 60 4603 34 2368
2587 1.9037659951065447 2.6347715224013575 6.2368381175350516 181 153 158 0.22895760423560524 9 4223 60 4620
3466 -2.2797705195315014 1.8645691614457398 9.0517636261309686 148 109 71 1.3166997619416667 9 939 14 655 34 879 18 1743
2588 4.6816282532560018 2.802342824924076 8.4375223148230241 100 72 60 1.9345580429717408 38 3579 60 4622 18 6319
3983 0.47575869226317158 0.5480761702212783 8.3906030795173034 184 144 145 1.2782121973651441 14 241 39 173 41 170 3 183
2590 4.4239716143471171 2.8254712179492452 7.8086681974527821 113 80 71 0.75875863613586081 60 4693 5 3026
3977 7.4250896207386239 3.5231149671621131 7.2979662657311009 158 108 73 0.99667817409939841 11 131 14 130 39 120 49 226 67 90 71 117 74 139 68 119
5518 0.41376666973574555 0.41255381372168076 8.5769290566897851 162 117 124 0.38361736174397071 14 4572 3 2039 1 2752
2591 -0.41653476738186329 3.158122561246663 7.627906252008394 117 78 47 0.41290811484081913 6 6126 60 4711
2592 1.7064834716778741 2.9645187602726244 7.0016785757635969 150 131 127 1.8025912221051861 9 3266 60 4739 5 1311
2598 3.3119270345014757 3.0367706513845603 6.4217229097504038 92 65 54 1.0672909712176901 37 1887 60 4951 34 2441
3264 -1.9052876607661093 1.8274158272061996 9.1264670564896484 111 79 50 0.97040686035271018 34 452 5 516 7 528 18 385 12 512 15 520 16 451
3921 -0.0042942955543113859 3.029076948862063 7.7179776156397502 129 93 73 0.50699134885831632 14 3971 11 4929 39 3605
2602 4.6483781044970813 3.2810242918613022 7.5978466606106849 135 93 69 0.99506474356245778 38 4907 60 5030 34 2988 60 6643
2603 3.8158915209391009 3.3058528056398884 7.3697861403148144 157 126 108 0.33546214494616877 9 5246 38 3897 60 5041
3418 1.692401722150126 -0.95012733491076051 7.6258955017359558 140 194 240 0.3683317079902283 14 73 1 93
2604 5.7219247136820917 3.6135310789271697 9.2469680858549079 192 147 114 0.10130785976904898 38 3828 34 2223
4302 2.4137906857250711 3.3407240880046336 6.6701828559926453 143 113 102 0.91415871310836228 39 3529 49 5008 3 5358
2606 3.9799032373707446 3.3586109326553335 7.4092150949124873 202 170 153 0.22631747469230937 38 3918 60 5118 34 2520 5 3425
3272 3.4061535858918437 2.5614665662930984 5.9313700525888118 149 135 126 0.27393048012170823 38 1205 5 691 18 1043
3929 1.7406291112344936 2.4281809370542358 6.4273592187411808 70 48 50 1.3889330518684833 2 2800 11 5244 70 1844
2607 4.3826975995962156 3.3356498176720928 7.4469590932367344 138 103 79 0.71982525779031559 38 4979 60 5119 34 2999
2608 4.1993128886423552 3.3883107623592581 7.3567151429011508 165 127 110 0.038979590722552714 38 5029 60 5189 34 2581
4306 0.43386087063394252 0.65164619086606201 8.3221615215375753 83 61 63 1.1758864587325626 11 5111 39 3654 49 3651
2614 3.9033979928659521 3.5216131763006273 7.1328709664867009 179 147 136 0.028759479183043678 38 5203 60 5376 34 2899
3280 3.4242148062641045 1.0782151765624037 3.5171606929632957 82 120 161 1.1104962691284572 37 520 5 772
4001 23.037929902674506 6.4538522664577327 14.716043188097892 123 98 68 0.58911355577543867 11 295 39 300 49 403 41 442
6069 0.38253910948009268 3.9583098608346217 6.5466185471560898 129 95 68 0.81043000535430632 5 140 7 132 18 143 12 133
2618 3.5518577128596704 3.6294658126859587 7.0351305778068722 156 124 113 0.51936872877690687 60 5506 4 4057
2619 3.3893739045616065 3.7211833003125219 6.9125403728011277 148 114 102 0.50941926346154309 38 2652 60 5640 6 3032 4 4102
3498 1.9101194035614275 4.1421046837644404 6.3387254157226023 103 64 38 0.014548740554358897 4 1048 14 1655
2620 3.2421970222621757 3.781182544834893 6.8613825950228762 112 77 57 0.98541183429566948 37 5020 38 4330 60 5706
4015 4.7466240638571566 -3.8805746154873 17.537141410837151 51 49 54 1.912645059902782 14 1038 39 424 11 1105
2622 4.6534691474410783 3.2860743109041608 7.8460390106268738 192 152 127 0.66064314117932044 37 3216 34 2149
3288 -0.74290693314339662 4.1742454907165918 6.2420884187330454 194 150 121 1.1918876407618235 34 1075 5 972 18 1146 7 3643
4009 0.14815656312877873 1.7253756502335553 9.2043827277964834 236 238 234 0.34237094520411965 14 313 39 370 49 369 41 387 3 377 1 392 67 291 71 341 70 346 74 349 64 400
5550 1.9404711487646862 2.6921769634813142 6.2303789885328476 219 207 198 1.8291191536928324 4 2058 3 2360 68 983 74 3141
2623 3.8238748790245092 3.5995953525054438 7.0173376867049688 112 84 70 0.3955147475637471 37 4929 38 5274 60 6236
2624 3.8103901907457205 3.6158239959428351 7.0857007720872236 140 110 99 0.50153792385732932 6 2925 60 6241 4 4024
2627 3.5110254892363204 3.4797723133640557 6.9709043100468584 140 108 97 0.3492980541640256 38 5204 60 6354 34 3045
3570 1.9093523424102266 2.6811235054526183 6.3180329732836231 0 0 0 1.4177122813588712 2 2815 38 4765
2628 3.5943206288135316 3.4887285002034432 7.2230012910360575 157 125 114 0.10127184428544145 9 5222 60 6408 34 3021
4087 28.82219567857469 4.975919001803236 22.098589158727727 138 122 109 0.96452029580877052 11 1406 14 1336 39 1226
4081 0.72593758855306956 0.62848649019178626 7.4194286234183169 182 182 187 0.20548919205522298 11 2098 39 1036 1 2686
2634 4.6705532576969677 3.2523759663796952 7.4884358450056583 196 151 127 0.16514175488616759 38 4901 60 6642 34 2528
2635 4.4726400595850269 3.2674318235002882 7.4970881884855531 173 128 109 0.64031309697686634 38 4914 60 6646 34 2981
3578 3.0429965940270494 0.63940342121476024 5.6697261201988178 115 161 212 1.2849766452263873 2 1250 14 3599 11 2770 3 3021
2636 4.8020667373078449 2.914941496538912 8.0762762291865897 122 85 66 0.72949525554066652 38 4734 60 6903 5 4512
4095 8.4543763194781345 3.3169283620943175 7.5801236366576559 121 80 48 0.67299564755828567 11 667 39 1259 14 626 49 663 41 1128
2638 4.3439458683825922 2.7223807938127371 8.2188518913606359 169 140 132 0.33812131689012687 38 5451 60 6988 5 4447
4089 4.4442840289890446 -3.6607831671438311 21.366389059027568 193 154 123 1.9132010219391387 11 506 39 1232 49 1238
2639 1.985075807597743 2.5602976736657328 6.1261668698343392 188 175 183 0.4264996955233516 37 3584 60 6989 5 3669
2643 4.5942092645101358 2.5963793788420242 8.516431909556669 134 106 94 0.92555143802227469 38 3511 60 7035 34 2943 5 3660
3876 0.84853831383156875 0.0077664646748049982 7.2131789960001056 101 93 96 2.0934911576494462 14 4533 11 4295 3 5975
6101 -0.55799590994375847 3.2723457844278854 7.3691077053314009 150 107 75 0.67488485718394997 5 632 7 541 18 552 12 371 15 542
2650 3.7759748558902309 1.676565181689281 6.4919139653342297 126 96 86 1.8429306908012755 38 3247 60 7428 7 628
3371 4.6162779035883776 2.4002439149846801 8.5457730059488082 173 132 110 1.1750744215054927 34 1870 5 3591 7 3326 18 5864
2651 0.34290666151273563 1.657123745127498 9.2663858144699951 193 196 179 0.78334717012068966 37 5177 38 4427 60 7496
3530 0.36849296514907603 0.61764435691553299 8.5980188936358957 176 149 156 1.6396919722505852 2 3168 14 2557 49 4835 39 3350 41 4265 1 4557
2654 0.53556174075810137 0.645268371818711 8.0156063119490106 148 144 148 2.4173687467513298 6 3771 60 7566
4041 -1.0462529185807286 1.45268051353199 9.6372955846456989 142 107 85 0.9291485187563856 11 587 39 670 49 1450
2656 5.3200001822097311 2.132662307410385 9.6721638661930474 143 97 71 0.75571534179012145 38 3125 60 7638
3474 0.67674993162577823 -0.3027091811924516 9.1868919751773959 164 121 105 1.3206989041498913 14 1093 11 2834 1 598 41 257
2662 6.1775887137192109 -3.239462629876416 16.476531723408506 39 41 46 0.72054605224870216 37 740 38 675 60 686 34 857
3985 -1.0095386046348125 1.142751411014546 10.238514611289348 123 92 74 1.6767874903083002 11 155 39 199 49 141 41 147 3 119
2664 -2.5811016073168807 1.6034646521624709 9.4959804050849659 106 77 50 1.9431801854545085 60 77 9 120 2 85 6 122 38 199 4 126 34 260 7 453
2666 1.5581961496900063 1.4684632418742769 6.2541387081937998 48 41 46 0.33946597967250858 37 4512 60 7529 4 4593
2667 -5.1353354179579673 -1.663140294830884 18.615588414250897 5 10 5 1.7493032614212769 37 39 38 56 60 54 34 51
3482 -1.5886355198762183 1.7555495718987479 9.2408986442165642 118 82 58 1.2300574775819584 4 1321 6 2610 14 1213 11 861
2668 4.7601898795529403 1.0330752281031874 6.9585435679828072 124 90 63 2.2990893469597085 38 276 60 261
3999 2.4184030711203106 -0.75443519813486415 7.150581228775569 14 17 32 1.9267114771492724 11 314 39 274 70 208
2670 4.3848442963990042 2.617558748735743 8.3963248381083826 88 61 52 0.31026420966848861 38 391 60 397 34 358
2671 3.6611904243494404 2.3742208844144366 6.3729155068457501 90 64 55 0.88356847413377571 38 1190 34 948
6115 -1.7444944719148463 4.0915901551827538 6.4448518929304432 147 98 64 1.3613911424748968 5 727 7 704 18 838
2672 4.7101608073648418 2.7456317728771285 8.403794203990623 86 58 45 0.20132104556094493 38 819 60 857
2675 3.6339924871148388 1.1717767316189758 5.8558627410959359 150 113 95 2.3820053360134357 9 228 60 1098
3554 3.317631739340491 0.67053176851343677 5.4371585830997189 132 122 119 2.2994381439266052 2 1247 14 2961 11 718 49 4616 70 1179
2676 -2.4531771510342582 1.9562692295697979 10.409888947096798 154 117 75 1.2925760639842558 37 2953 60 1115
4071 0.55080670304812895 1.0139198443387523 9.2717028499730318 157 128 122 1.1101953566463438 11 2019 49 940 3 569
2678 5.3196762945820986 3.3411421031362161 7.7637835557160324 146 97 67 2.39929552177786 60 1184 4 3270
4065 6.1184162149927248 3.8365845119536131 6.8203950888423632 143 104 73 0.56187115704814805 14 592 39 917 49 2271 3 2121 1 1143
6133 6.0973676641830989 2.2406406750904235 8.8336246017726943 197 163 138 0.39991760544111959 5 1357 7 979 18 1630
2682 0.23439219707346429 3.3668890954058401 7.1883946728757806 147 104 62 0.28682703366270279 6 3116 60 2955
2683 0.51151319466041778 3.2924908736919356 7.3729465690220071 118 73 40 0.60878499647610163 4 2114 14 2051 37 2296 11 1816
2684 3.5055783920565151 2.7901799633404853 6.4009002217368671 97 71 56 1.9940781715127227 37 1939 60 3099
4079 3.4638757207797357 4.747042243097586 5.5402361934041569 175 121 87 0.74683438072037889 11 1774 39 1012 49 1946
2686 5.5075209091819621 1.4459569462494686 9.0921888741236359 116 74 49 2.3946564052346795 9 3952 60 3643
5614 1.9300157096512349 -1.7359447860171839 13.317182202497431 78 68 64 2.1174219492959927 41 1979 3 3246 1 3551
2687 3.3557168160006037 1.1343590344421497 4.2864685698780995 164 126 108 2.4256782715644789 38 464 60 3687
2689 -0.79478112714891525 -1.9656448787465937 10.749316560639011 121 131 107 0.27254687770995356 37 2638 60 3812
2690 6.819834543573613 1.169166932735147 10.249728649476546 105 71 42 0.71514649157606691 6 3762 60 3999 38 2875
3347 4.8443092476566134 1.4439557183695544 9.8592282378767901 160 124 114 0.57008119243416644 60 4027 5 2451 7 2834 18 7235
5904 2.7499201784550285 2.8786506625120372 5.8238484508432515 121 81 54 1.5725361621124041 3 3958 41 1874 1 1895
2691 -1.0679898476985037 -2.769891308037951 13.333337772168923 122 129 111 1.0454765893859648 37 4282 60 5986
2694 2.2347776432821762 4.1237141103582653 6.383369522654454 93 59 36 0.95205846874891042 2 21 4 13
2695 4.1424448956590147 2.4249737621193335 6.7824837300878675 80 55 48 2.958060033631841 9 7 4 14
3860 -1.4461147506484222 1.6685583756123334 9.4555908812977503 138 103 81 1.8250156955735866 14 3384 11 3727 39 2232
2697 0.69542493749127787 0.73641424542039269 7.3898824089538655 37 30 35 1.5485666121715493 49 46 41 40 9 95 71 39 70 41 74 29 3 42 68 53 64 43
3870 3.2572388898240909 -0.035993370377041561 5.6903365983452892 143 179 213 1.630696630810859 14 2436 49 1496 41 1075 39 3192
2698 -0.70218267724143157 -2.6831404112011001 20.081420988807231 9 9 7 3.1944510191993163 6 60 4 38
3355 -1.8583795308191147 3.7101888583699272 6.8064838027366115 183 134 102 0.30541124851420126 60 2735 5 2602 18 4703
5407 5.4041591526277459 5.5696518898277354 4.4827878895307309 156 98 56 2.2131198426869001 41 588 3 916 1 849
2702 0.49415152127861456 -0.28767335842283021 7.2507395872223963 32 46 47 0.69794367391412937 6 24 4 75
2703 3.2477675503912731 2.228030866800446 5.6556395929089707 216 228 224 1.754459604891154 2 131 6 74 4 82 14 149 11 156
3868 1.2321306108674066 2.3834926291133942 8.2793662729901438 27 21 16 0.71174219482070133 11 4190 49 5018
2705 2.95897677160024 -0.093063912160301368 6.2221153542102874 16 20 32 2.2974516876578326 6 270 4 103
2706 18.981128166872473 -2.1547347274293229 28.771373478453455 163 142 144 0.65814317628060959 6 102 9 97 37 150 4 109
3427 2.8184522672304406 -4.1304745076306544 22.063155270900296 49 53 54 1.5110972305946246 2 209 14 120 11 119 70 236
2707 21.318624561240593 -1.4010302701994222 26.772377863739983 5 3 5 2.1476349366834007 6 89 9 73 4 110
5914 2.3526000889276468 4.9152204116414824 5.3795723861528053 172 114 71 0.097048179245275923 3 5585 41 2096 1 2176
2709 4.9377539109002182 4.1513002009340427 6.6571410601098533 168 127 105 0.97061885548750693 6 211 4 133
2711 18.976431216034232 -1.8821625299591136 27.918658092004002 4 4 1 0.19711556885358483 6 172 9 170 37 163 4 148
3950 2.1307638429398326 0.59310144470179238 4.7742376061273637 31 72 118 1.5669424306978961 14 2482 11 2769
2714 1.4636737663248325 3.6890559321761098 6.9089230334474605 94 63 40 1.1542356540595387 2 170 4 188 11 165
3435 -2.0661343354839707 1.868195360300583 9.0994492554248154 111 79 55 0.07944721085177564 6 432 14 208
2718 1.5660064083371272 2.17487413479166 6.4219386294198699 46 32 35 1.3907695872801542 2 248 4 237 14 230 11 232 39 356 49 484 41 352 3 348 1 408 67 200 71 319 74 322 68 414
