# 3D point list with one line of data per point:
#   POINT3D_ID, X, Y, Z, R, G, B, ERROR, TRACK[] as (IMAGE_ID, POINT2D_IDX)
# Number of points: 401, mean track length: 3.8211613289434303
1615 3.146622552117579 3.3467002955968987 7.2722687809366109 119 85 76 0.30383129608908893 24 1879 45 1926 4 1796 3 1014 5 1302
7125 0.2797483840208092 3.2916096673584581 7.2060825881335679 157 128 110 0.86822777558053454 22 5263 33 7146 9 6326
1626 4.7432727238016668 3.0498059287965789 7.6952461769819882 133 88 57 1.6608923950329217 24 1988 4 1898 5 1200
1632 4.2436562513677476 2.7586771201598435 7.9835380244226855 137 94 75 0.14648172901704279 24 3087 3 1565
1634 4.1826671721381832 2.6584900748796407 8.0644352166760935 142 114 99 0.56367115046747518 24 3066 4 1969 3 1746
2973 6.1865305934583086 2.8686203570754594 7.8815191491742818 103 69 41 0.06874936551893554 41 2077 6 1680
1635 4.8411846338916922 2.738419215300572 8.7732183460547208 170 121 91 3.0472744761549428 24 2085 4 1970 5 1518
1638 1.4585954044922615 2.2670935623359623 6.3273976999841768 180 164 174 0.41885330025090373 24 2088 4 1992 1 1967 48 2089
1639 5.0367427589331326 2.5060944149731528 8.4552625238069776 173 124 94 0.90194023330631445 45 2521 4 1996 6 1658
1640 4.6096610055012812 2.4431702326122569 8.4424123094177048 126 99 78 0.75798444895635342 45 2524 4 2004 3 1778 5 1472 12 1643 7 1949 33 2683
2971 7.0237449484480292 2.7645041318075929 8.0741282801557848 97 66 38 0.072578020579165764 45 2509 6 1659
1642 1.1078184156942099 2.2026350299022028 6.7465576960908731 188 191 197 0.2413809033918706 24 1330 4 2013 5 4330
1644 5.1235410712835634 2.2167361118977036 8.5452939364653293 115 73 49 1.4277022511702819 24 2975 5 3317 3 3492
1646 0.085824335814068245 2.0002993535032862 9.0014294980241143 91 64 45 0.53056706877130788 41 1011 4 2043 17 1174 1 1242 48 1395 37 1281 46 871 11 800
1647 4.6656647080166227 1.977753688545667 8.659070183480571 148 99 69 2.9229808882712902 45 1832 4 2049 5 2180
7139 2.824224475829733 2.1946751369761643 5.6506111612143997 134 127 117 1.286289804821767 22 63 33 59 9 58 14 77
1648 5.4731241828959902 1.970744292249319 9.1080955286931715 144 104 78 0.67773923878046194 24 2167 4 2058 3 1839 5 958
1655 6.3591346198139176 1.49165636685221 9.5949414880577315 110 72 46 0.68310475569952722 45 1421 4 2104 3 1914 6 1575
2534 2.7816020417900149 0.60759888852627786 5.6270434249527526 104 145 197 0.78083842573109608 3 517 5 547
1656 -1.730963008276857 1.2929251246152236 9.8748545802140573 153 110 77 1.770784307413559 45 1809 4 2109 17 1166 1 1248 35 1565 48 1920 5 2062 68 658 71 1261 72 742 1 3101
7157 2.9208443329606943 1.7806519372812368 5.5724709799059449 205 215 210 0.13885795447919552 9 182 14 185
1658 7.3748845845169075 1.2384951859112578 10.147817200228898 117 80 46 1.3895109318955943 24 3953 45 3804 4 2117
6638 1.3380457292655317 3.6399456099386733 6.734466128595983 150 119 99 1.4281221341159602 12 3839 33 3519 22 7308 9 4724
1663 3.3935548330364438 3.2047825303648136 7.486948607166223 96 67 51 0.25230670531746757 45 4851 4 2202 3 2417
6928 -1.715222347894092 3.7129911390963528 6.975525585655209 124 85 52 1.0111325362295769 33 1808 22 1543 9 928
1667 3.1020283417910761 3.3018571024037908 7.412144138521068 181 149 139 0.24796104893611881 24 3821 4 2258 5 2724
1669 4.3401218093428682 3.3829974219935828 7.5824464839110464 193 146 116 2.6512015472820245 24 1851 4 2282 3 2523 5 1764
2327 6.6647051768273498 1.2303121596133808 9.9214524784884581 127 82 51 0.35757773158015621 4 2795 3 2899 6 3109
1670 4.0613126876940751 3.3608221910246137 7.3645181852615185 178 136 114 1.9755288635116079 24 4018 4 2287 5 5504
1675 1.5432369715559029 3.3712835148738107 7.222113752472251 121 85 63 1.5543990539996499 45 3005 4 2324 3 2481 6 4121 17 2821 1 3714 45 5022
2840 22.13532181432436 -4.4730940163372219 29.904221106298802 3 2 0 0.91771213488445325 41 627 45 376 6 476
1677 2.8973078334504163 3.3882880305540746 7.1671546368009968 83 53 45 0.73660539895662624 24 2370 4 2330 3 2537
2834 18.517200187612829 -3.2362162159307908 27.93669825804195 100 16 31 0.19591514959229597 24 427 45 384 6 380
6431 4.1825103250641735 -0.063472603450001552 11.8291486025265 144 101 82 1.0717332556135835 12 2706 33 484 22 365
1678 4.4446202453044226 3.3476851342927456 7.0081932912043694 164 115 83 0.90929135205893796 24 1875 3 2588
1682 4.6422277004982595 3.4549337240637645 7.2272388157619618 179 134 112 0.9041041579358412 24 2355 4 2356 3 2623
1683 3.2196546711191125 3.4342753442891465 7.1258215353556169 155 122 113 0.42042735578991136 24 2388 4 2365 3 2568
6938 0.24754165132109657 3.9592935450250004 6.4943776213985425 140 124 109 0.55780871606760396 33 1234 22 1672 9 953 14 1250
1685 0.43531436863758921 3.4304025921852306 7.205252793352388 114 69 40 1.4635588488693847 45 5127 4 2368 6 2470
2407 2.9609518609975827 0.18173467449099159 5.4542449140424694 76 104 141 0.5910716706107918 4 4316 3 4361 5 3753
1686 3.3058359880390689 3.4571317503301864 7.1378200125707139 113 81 70 0.3690972218112587 24 2396 4 2372 6 4066
1691 3.4560440957044243 3.4822251717877197 7.0555937823136334 190 161 147 0.059707881538853806 24 1582 4 2393 3 1566
2920 -2.0458096484178503 1.8274030847254246 9.2370868888925131 143 107 73 1.5027079929275684 4 2881 6 1309 17 1008 1 1830 48 574
1693 3.0520568288277752 3.6001375698135707 7.5187363609534206 95 66 58 2.3921372433248997 24 2423 4 2397 2 2297
2914 7.4104080678609163 0.88599674795790817 10.82404511650865 141 106 80 1.576694516656348 4 2133 6 1245
1694 3.9087886259681168 3.481978166485439 7.0106442270235156 148 97 76 0.16763454496931371 24 2212 4 2398 3 2650
1715 -6.0466348654364177 -2.8407036177840479 17.185704294134084 71 77 64 0.66334344850261151 24 2216 45 3657 4 2660 5 3918
2311 -6.0888595145269626 -2.8939121494159799 17.03835626055066 71 72 64 0.34141871265335988 4 2655 24 1472 3 2780 5 3794
1723 15.286675676379767 -4.0743849411007513 28.635538383099579 115 112 119 1.2963033711746332 24 1494 45 1348 4 2679 3 1075 6 1489
2824 -0.42295205072916758 1.7769429774787131 9.1346604440444441 224 231 227 0.42325549538125895 3 595 41 314 6 337 2 391 17 312 1 300 35 371 48 372 37 388 46 378 11 395 72 344 71 345 74 350 64 399
6992 1.7764635353197629 3.8921422605546248 6.597229386196962 93 77 62 0.32848234619590566 33 4191 22 3566 9 4155
6177 7.1129673791980386 6.7633197669196257 15.544538055829481 75 44 24 2.5265407265725441 37 1603 11 3991
1731 13.184805200523577 -3.1668885879628461 27.24359622403168 85 36 40 0.78757199515652898 24 2775 45 4344 4 2695 3 3176
1733 15.435307398394473 -3.3655715611057024 28.882226126395242 217 194 202 0.49499178658326376 24 2776 45 6245 4 2697 3 1380 6 3026
2391 3.7347325348158611 3.4295650161367455 7.1298345911106988 116 77 60 0.43021055648498302 24 3363 3 4212 5 6166
1734 12.968430499627356 -3.0006500435362717 26.855757678380673 84 38 40 0.92946470984846097 24 3899 45 4347 4 2700 3 2827
3108 1.3313611764323547 1.7319385912082563 6.2338812577008094 183 188 191 0.79396375652355733 4 2875 6 4659 17 3715 35 3374
1741 6.1390330561442914 -0.25351654964034298 11.979562829994611 126 98 81 0.77172157535466612 45 3716 4 2726 3 1973 5 3723
7212 5.8438733282706927 4.0832468717573338 6.9632170026705911 152 102 67 1.8615766574647996 17 511 68 626 1 611
6495 0.52708678043852175 3.8485538961514121 6.6343642579765207 169 142 130 0.46376869214968691 7 978 33 1247 22 1040 9 978
1742 13.383176803441561 -2.1307763775765243 26.915685885641153 120 110 110 1.1593417953741048 45 3723 4 2727 3 1974
1745 6.6578714503669785 0.68568822412077268 11.118211135406222 114 77 53 0.60444593268805069 45 4401 6 4527
3127 -0.24508854555396739 1.6507496569567437 9.3003504868954874 178 173 152 0.38864890519106271 41 3349 6 5752 17 3778 35 3493 48 5020 37 4507 11 3976 68 1779 72 3087
1747 -0.71598509217376005 0.68966488268127624 10.446396062390971 140 97 64 2.3713375857105823 45 4217 4 2776 6 3135 41 2038
7211 7.3177207889355769 3.0141098736465142 7.4211838712134162 142 96 62 2.1879688146699294 17 614 68 590 1 586 71 904
7002 2.9429471422294768 0.98463576351563609 5.6458883982568207 54 80 107 1.9121526802837185 33 4884 22 4646 9 1406 14 667
1749 6.8664867724797478 1.12481862543349 10.398449514190794 137 93 58 0.76804759969321024 24 2865 3 2889
2471 2.3720471911918954 -4.5985388473566582 19.591815858975018 10 13 30 0.30468349598347289 4 138 2 31
3124 1.3128539409865763 1.4158450163511516 6.2003742487522597 75 65 66 1.226060919323281 41 2047 6 5633 17 1400 1 577 48 406 11 1001 72 557
2105 4.9497702434448705 1.2717221704041897 9.8983969703940886 135 90 57 0.34746685637654467 4 1555 3 605 2 572
1755 5.2896517585035676 1.5794361508810129 8.9953442008038085 126 82 53 1.1285988100954305 24 2893 3 2942
2984 -0.89716956939148873 2.5205153231402897 8.4052948906052816 86 55 34 1.6317219045153302 41 1063 45 2717 6 2257
1757 1.2685201743308632 1.559485865190124 6.2923637436315101 51 42 47 1.506342253135178 41 1292 45 1435 4 2820 6 2919 45 5629 17 3697 1 2940 35 3078 48 3443 37 4178 46 5013 68 1295
2978 1.6557020775010249 3.5063358290835587 6.9170814341209592 79 51 27 1.0449869955716427 4 1589 6 2109
3123 4.1871483166492114 3.7683582685013826 7.1990702797351274 126 102 92 0.51005795123239384 41 3270 6 4911 72 3214
5774 5.7707174427017831 -4.1184419342561158 15.421242393789578 75 79 81 0.6112145490267441 37 3171 46 3590 11 3454
2335 5.8076580962841167 1.9743402271442394 8.8532024723481797 173 123 87 1.555218938244483 45 4525 3 3060 5 3374
1758 5.3927411121372559 1.6734949005667488 9.3830286848672628 147 107 81 1.0993176378281044 45 1800 4 2821 3 2968
1762 5.7362285268259798 1.9193578249504948 9.2207656917739342 112 76 50 1.2260965548454081 45 1820 4 2878 5 2182 6 3169
7024 1.3660888690353066 3.667027443449244 6.8549635357834964 143 124 110 0.25933065366565961 33 7822 22 7312 9 4748
1763 1.1203829795627698 1.7687582712877334 6.5010410817553748 137 127 128 0.46867559937390973 45 1964 4 2886 46 2035
1765 -2.4843065263435227 2.137629399491475 9.2607248596225151 154 114 82 1.5721844447518234 4 2941 6 2285
2423 1.7055567231165045 2.5629874525102339 6.0052361587959711 176 141 148 0.70236993494760125 3 4768 5 4662
1771 4.3764891363614868 2.5044132525855609 8.3638014315291773 138 113 93 0.22653517853934199 24 3023 4 3032 2 1950 5 4633 33 4329
2936 16.962693476602013 -3.4682269557776988 29.647453886743204 86 74 76 0.26330473037822394 4 1498 24 1509 45 1684 6 1502
1773 1.4612883503750302 2.317923673198373 6.3710781301806358 86 66 67 0.51140915001126652 24 3068 4 3054 3 2093 5 4463
2930 19.027980423326539 -5.9473870120561481 30.649637103033356 3 1 2 1.2331368760942809 24 1173 6 1462 4 1453
2351 4.4431598573838667 2.065103598081774 8.8384242941827136 175 137 115 0.30739876880799866 4 3407 3 3434 5 4390
6527 4.3680508062423993 -0.20288627434318629 11.871626170292304 186 136 115 1.1768215331683367 12 1196 33 1793 22 981
1774 4.6225872550092966 2.5287176554411648 8.0192995768660023 122 78 49 1.8070223409172277 45 2636 4 3055 6 1669
1779 4.3447979762761513 2.6677834491807886 8.1300624119494724 154 118 104 0.1600745597478877 24 3063 4 3090 5 1516
7034 -2.863096302591194 2.2345307244420876 8.4814099335500384 113 77 43 1.2357424365070846 33 1742 9 1482 22 1725
1781 4.5933746021207682 2.7421235315362336 8.092406103237769 127 81 57 0.51087932280430948 45 2485 4 3108 6 3251
2375 3.3301798829134897 3.2316275818872997 7.3589026153887298 102 70 57 1.7642724494546356 4 4153 24 3776 3 4005 2 2541
1782 4.0973674632097303 2.7704226865607562 8.0854565070593001 138 112 99 0.3439446488451508 24 3094 4 3118 3 2221
1786 0.37038765017610031 2.8680602409785032 7.9310924932467186 86 56 32 1.368523145172335 24 2249 4 3177 6 3343 45 5816
1787 3.6374736182791976 2.9003363684906383 7.7432898955297587 102 74 62 0.92834689464613407 24 3162 4 3186 3 2276 5 3012
2888 14.905558012059924 -4.4345441588849619 27.31696044719493 79 64 71 0.94039326016376323 4 1159 24 1193 45 890 6 797
5806 5.2178457729174079 4.025611300691744 6.3760616805326844 123 75 38 1.1477145701581897 37 2549 46 3908 11 3650
5081 24.358044207848693 5.3414108726427036 15.874350807973837 197 180 123 0.35088876841552386 35 1239 48 1565 37 1113 46 1188 11 1092
2367 4.1002582807703734 2.9908913055195332 7.4363630339733948 129 88 68 1.1240938184205793 24 5039 3 3850 5 2858
1790 -1.7160220796383812 2.9000105652324208 7.7451388541415298 131 89 57 0.50089396414576159 45 2893 6 2402 2 908
1792 1.0078781621804158 3.0109342741769325 7.6913496125478922 95 54 32 0.14887459162109273 4 3242 17 1861
1794 3.8285251806749101 3.0928278393810138 7.7439495222368739 157 121 105 1.6912087655220991 24 3226 4 3266 3 2355 5 1598
2749 1.0467540042715817 -1.3718542750393123 7.6436125839566804 138 171 202 1.7759069841738351 5 7610 7 2331
1796 4.0551753502054462 3.1148992141744358 7.594823978055965 155 117 96 1.0918863405545609 24 4319 4 3295 2 3006
1798 4.4616876457428747 3.1119037717413138 7.425915021787505 171 123 100 0.53622662095313023 24 3244 4 3306 3 2409
2230 0.67992805382496679 3.3877760978438083 7.153124653578975 118 74 45 0.87496337049178974 45 2554 3 1450 6 2105
1799 3.6376895725424649 3.1514420197616255 7.5111528579408668 160 126 111 0.21497808873865551 24 1931 4 3314 6 3312
1800 3.9716813727621876 3.1510313240527217 7.4718695792486747 160 123 104 0.72208658769282141 24 3272 4 3315 3 2406
2747 0.053138258634074856 0.69692354098063192 7.966928627073532 148 144 148 2.4353131164799842 45 3771 5 7566
1802 -0.21195021939134462 1.7658143144992644 9.1869892628679946 160 157 154 0.50852528331561619 24 4929 4 3336 3 3121 5 7492 6 3945 2 1708
5983 23.006250705466613 4.8068956139738823 15.350445164560448 63 47 34 0.36924051600337782 37 274 46 435 11 434
2254 5.6610746210588303 1.7406030508629065 9.2920493424389061 85 57 35 0.69412662743772169 24 2192 3 1879 6 2308
4652 3.244017640218368 4.9450835209062713 5.2384128360187834 168 122 89 0.83167938111552908 35 2291 48 2492 37 2888 46 4358 11 3421
1807 3.2041373796890871 1.8562237282805416 5.7033917739327515 128 93 72 0.70219817377320093 24 2143 4 3405
6787 4.41623292474201 1.6954314910269632 9.4429076249746355 190 134 99 1.4016854481482686 7 4113 12 4608 33 7545
1808 4.5626429980990819 2.1533546693404948 8.7210579172131499 163 118 95 0.43967687999085059 45 4577 3 3470
1810 1.1760887331344336 1.9782181432427 6.4809024746039281 145 135 134 1.060071613977174 24 2988 4 3425 3 3050 5 4201 6 3958 2 1799 7 2440 35 2575
2701 3.9182541709875083 3.1568953883279463 7.5226208680821589 165 127 110 0.052369575169293046 3 5029 5 5189 2 2581
1813 4.6825956338967964 2.4479067648769157 8.4149093541004927 109 74 52 1.3758933550851999 24 4082 4 3493 3 4667 2 2704 7 3768 12 2358 33 4450 5 4617
1816 1.4801522070846811 2.3130350689558679 6.3471742517517615 134 110 107 0.86269019894657561 24 4143 4 3534 3 3543 2 2879 5 3363
2699 3.6950801192521476 3.1429075362075332 7.5592464591407653 202 170 153 0.22679334179033014 3 3918 5 5118 2 2520 7 3425
6805 5.0757560972640636 1.5706411337888935 9.5336639200465783 197 146 119 0.38243159424133993 12 3223 33 7897 22 3779
1818 4.9329392084492145 2.6430110783389353 8.1811164983419555 173 124 92 0.13678893122352306 24 4129 4 3557 2 1673
2270 -5.0205827945150281 2.8626457400308425 10.638981236176326 141 97 62 1.0001578533222684 4 2605 3 2050
6286 5.0435467677887678 0.80445284295966402 10.509787640016443 143 101 77 0.66428873763508223 7 2435 12 1549 33 2251 22 1108
1823 4.6569771073152095 2.8424388447383442 8.1149445164879683 150 102 71 1.0293902167685836 24 4178 4 3603 3 2255
1824 3.8823644134182209 2.8136749503977785 7.9021819617923743 142 115 104 0.36041214508453301 24 4184 4 3608 3 4788
1826 1.1695590971017231 2.7603202142923808 7.4272102612370183 145 126 119 1.163001097376543 24 4237 45 4753 4 3625
2508 4.8693093118339581 2.216839280964789 8.720123480975019 115 84 64 0.86969836204202278 3 248 5 328 2 230 12 199 33 153 22 154
2653 1.2603195310487136 1.5714811873784713 6.3048543889985291 58 52 53 0.051027987015831333 3 2919 5 3640
2134 4.9498699127017609 -3.5433747255065438 16.5880325877533 74 81 89 1.1788222792527936 4 744 24 767 3 716 5 663 7 1159
1831 3.6807900600921486 3.0044299431008747 7.6370111010810442 122 90 76 0.46965571532882627 24 4267 4 3694 3 3623
3521 -5.1599431794243582 0.9161380311916596 9.0119751790424232 12 17 73 0.24813311629597673 2 767 7 934
1832 3.7314486765859831 3.0204482881300123 7.6914750064193402 170 139 121 0.30367139950544875 24 4268 4 3697 3 3820
2651 5.4838725687154231 1.6161492173265852 9.6790819718179453 121 77 48 0.43404583068615721 24 3976 5 3539
3530 0.87138906240024283 2.0869340815965991 6.8494101890281316 196 196 195 1.2208627325491439 17 10 1 10 35 8 48 14 37 11 46 7 11 7
1834 4.0224339396752011 3.4168275907152634 7.2205275715689732 181 135 109 0.89412667316714978 45 4931 4 3706 3 4202 5 5604
6015 39.028718023996042 -0.31007596958526662 27.62116276294822 85 87 82 0.64258411275573557 1 2719 35 2533 37 2308 46 3063 48 3452 11 1307
2286 3.5105042461459313 3.0317907892950591 7.6311454980735132 105 73 62 1.0114500151964192 4 3248 3 2335 2 2099 7 3184
1839 1.3928183020554517 3.4006452595142993 7.1893841019503677 132 91 67 1.1717085287036666 45 3035 4 3779 17 2846 1 3739 35 2738 48 4046
7634 15.898086995958751 -1.5693101410621595 26.652444001677001 99 29 50 0.87616434197966564 72 662 74 919 68 332
6819 5.0957055060964516 1.3863068371304259 9.9891747635910999 221 166 135 1.2819362018516476 12 4579 33 8436 22 6364
1840 3.5168835201443334 3.4681319369491126 7.3569126981983457 114 84 73 1.5159909348251501 24 3362 45 2948 4 3781
1842 3.214378526238467 3.4424656006874668 7.0845531220268878 110 77 68 0.58145674323629704 45 4996 4 3811 2 2692
2524 5.7316860082671806 -3.1270455843343741 14.353883157660883 86 96 98 0.11797591586303025 4 463 24 466 5 441
2733 4.7204790051786274 2.3491128915041148 8.3648457780269645 82 57 45 2.1725550324665379 3 4638 5 6999 2 1938 4 3458 33 4427
1847 3.1036643000403679 3.4797523553199317 7.0252578859602695 112 82 72 0.50910658331960856 24 3416 45 5023 4 3845 6 4091
1848 1.8553635744925601 3.523671399676104 7.1601917055895772 113 82 61 0.084704929667897777 45 3066 4 3857
2731 3.962041919382453 2.4941965693492523 8.3907269657664134 169 140 132 0.34343665184691002 3 5451 5 6988 7 4447
3546 1.7616391035509944 -4.9886048748538006 21.273964037119164 252 223 227 1.0802902427413372 41 111 17 111 1 111 35 108
6837 2.9561824568596711 0.21831618760343455 5.5534440813806256 50 76 103 1.2828602690412247 33 25 22 17 9 20 14 26
1850 3.2012652274976539 3.5174733593194603 7.0216133800660208 147 117 107 0.89792719742082272 24 4428 4 3866 5 5629 6 4889 45 6105
1852 1.8386997981277806 3.5488495853064035 7.029391696378692 107 66 38 0.52822401020196175 24 2487 4 3883 6 2442 41 2254 2 2167
7641 6.5319354094842232 3.4781875012044252 7.0465970514849134 118 74 42 0.74710664648383029 72 1451 74 1117
6318 4.6702776371447898 0.20507390910035947 11.27817469811748 142 100 84 0.71874559789787718 7 1455 12 2727 33 1973
1855 0.23392908428205639 3.6220623498117521 6.9186207458515003 127 82 48 0.95739695533908542 45 5283 4 3943 3 1551 41 2416
1856 3.6022566068812663 3.7109145813210627 6.8533204880568377 164 117 93 1.7595014681862795 24 3582 45 6218 4 3969
1858 3.4158597168711839 3.0550695540140236 7.29120852046269 114 84 73 2.0110769496917351 24 4329 4 3980 3 3896 5 5032
2294 3.2366233765057388 3.3019203077805042 7.3304963181107592 178 146 135 0.22137096235829534 4 2265 3 2487 5 1671
1863 3.7130846672073479 3.2023053900046405 7.6227126844024813 159 123 111 1.0966769429025354 45 2817 4 4088 6 3317
1864 3.2339392590555134 3.1618478399404877 7.4358013356364641 170 140 129 0.57659177608629497 24 3732 4 4093 3 2393
2811 1.4827473873216608 2.3818760719249803 6.4130959166359061 71 53 51 1.0380858136354736 24 309 41 238 45 306 6 242 17 221 1 243 35 217 48 350 37 361 46 356 11 410 72 279 74 328 69 423
1865 3.4641846115347592 3.2247495799131203 7.6552891337268631 96 67 49 1.5176600232554887 24 3734 4 4108 5 5135
1866 3.8810151852376968 3.194695097688439 7.3971388178564839 152 116 99 0.67627158693890654 24 5125 4 4122 3 5050 2 3047 5 6424
1880 3.2769140797614331 3.3327846521592179 7.290184869241533 126 96 86 0.52002701996295908 45 5962 4 4236 3 5201 5 6365
2763 4.3165035937334224 2.4939903086443986 8.601245653695555 86 58 45 0.22408469762426569 3 819 5 857
6350 5.530365527680499 1.9080569997118875 9.0037902147360249 171 132 115 0.1849638465337301 7 4437 12 3560 33 2704
1887 11.005502841937494 -3.4579031167842138 22.497604859487954 38 26 35 0.20328962465766814 45 3652 4 4306
1888 15.141506230019871 -4.3279451872661943 28.477281722728186 111 102 109 0.34205803649965155 45 4316 4 4309 3 3169 6 3770
1892 13.290306204096042 -3.2954680981536337 27.633340390091199 114 64 65 1.003026954276403 45 4340 4 4320 3 3174
1896 13.345633972361425 -2.285766793278631 26.441025491082918 87 83 85 0.44421186007099706 24 2813 45 4370 4 4332 3 1978
2715 3.5805332598427584 3.3879974769394936 7.1549986891169333 112 84 70 0.34778100565426406 3 5274 4 4929 5 6236
1898 0.10736116035869805 0.80055655114880153 8.1760487033205109 0 0 0 0.81076781277613907 24 4824 41 2028
1900 1.1040446945640845 1.3117567547065656 6.3328394176390068 107 97 96 0.41989137821503847 24 4840 45 5586 4 4376 6 4574
1902 0.75021312298513143 -1.3810712881355163 8.8860645437758716 158 193 223 1.9571589194473926 24 4767 45 4244 4 4413
2278 4.3288874538288686 2.6540184083719498 7.9785576516649961 111 74 55 0.67563900565958956 4 3091 24 2082 3 2190
1911 2.7955673882000664 0.65970378838121069 5.6483653801120903 91 134 187 1.8153031771757493 24 4808 3 2847 4 1210 6 753
1912 0.27998096626076147 0.4737280285595461 7.3746319582877868 202 202 210 0.13823522805930602 45 5527 4 4468 3 5188 5 7572
2795 2.8909012624726915 2.4866061756530735 5.8451122814764584 160 153 143 1.250472760086905 41 247 6 129 17 428 1 632 35 924 48 2165
6901 -0.89288832372055027 4.3044163533487909 6.0157458761818603 126 90 63 0.63365701851322143 33 790 22 961 9 889
1914 0.1105706141711579 0.74924643484541908 7.7072964465284546 126 126 128 0.51758179888599831 24 4821 4 4478 6 3115
6382 3.5776561937406375 -2.5457510688116383 14.725884982785518 240 202 201 1.5909444992129917 7 2350 12 4723
1919 1.2892038945343656 1.41931024401419 6.0479269888768377 106 91 94 0.49032205461961215 4 4511 5 7527
6672 1.3850187074591183 4.1290549831225674 6.3077941647771736 176 143 126 0.14830234938296982 12 2490 33 4210
1923 -0.097659776165751958 1.6034353095281164 9.3691116345315599 199 172 158 0.23613255415773518 24 4872 4 4526 3 4411 6 4662
1925 -0.34957071478304214 1.6420494352340314 9.279016124682073 198 174 206 1.6452194810651679 41 3351 4 4537 6 5751 4 4531 2 2949 3 2912
2071 -2.2934929406737998 1.9588946877213487 9.0236319113029708 166 123 81 1.6659102754469639 24 352 3 419 4 365 6 680 2 430 17 480 1 164 35 541
1926 -0.082309203919564533 1.6556893734497677 9.3163366590845218 195 188 160 0.60870679493351543 41 3346 4 4538 72 3263 68 2108
1931 -0.56286766210762795 1.7680635493869807 9.1240627781408552 110 75 58 1.3229474291918759 24 4029 45 5704 4 4569 5 7501
2584 4.0834072181215841 3.2824683513874686 7.4806216390179516 134 93 71 0.99463181013889235 45 2319 5 1246 2 1106
1933 0.00066668863231338082 1.8465510833547003 9.1498746798981241 230 220 221 0.69045143378540885 24 2956 45 5710 4 4588 5 6158 6 4715 17 3799 35 3505 48 5031 46 4316 68 2084 71 2210 74 4824 72 3091 64 1105
2578 1.2052448956148196 2.0127260808271594 6.4835145535466125 168 123 136 0.94166273325938066 24 1322 5 1145 6 1306 7 1483 46 2294
6175 1.0496221688501366 0.43299887063660736 4.6573719428890454 110 149 200 0.38357637518123722 46 4888 11 3509
1934 1.0346016782522767 1.7576003077133393 6.6556912774868104 94 75 77 1.4453797822491243 41 3335 4 4590 6 4671
1939 1.2549159828842935 1.9695150930249115 6.4366415261568397 227 202 208 1.1933053425134077 45 5726 4 4618 6 4723 17 3298 3 3411 1 4523
6682 -0.93678173567333833 3.8125832163417681 6.656337624235972 182 139 105 0.50968697341751634 12 4388 33 4559 22 4485 14 3581
1941 0.57349232398549399 2.0697866676185521 7.7405658342871702 151 139 141 0.67196716177271787 45 2602 4 4621
2151 5.7593864899200486 -3.1901747305384123 14.409427541499753 94 108 109 0.88978117013593161 4 1114 24 1147 3 931 5 1977
1942 0.6247290734795975 2.1362733758862356 7.6911072715273656 143 129 125 0.3455688138216958 45 2625 4 4624
2664 -0.13112642459109652 0.25504121114139489 8.4274259420287851 199 193 192 1.3466836340407546 45 2584 5 3945
1950 1.5893511095573298 2.3577846968072227 6.233150614694388 91 70 72 0.29221904119370146 24 4992 4 4671
2262 1.1274422341760681 1.9922555697503967 6.5321128449108894 193 196 201 0.96261301479391115 4 2942 3 1992 5 2133 2 1622 7 2439
1959 4.1857044501699194 3.2028196857718894 7.6064943733008121 138 98 72 1.2828864987628492 24 4355 3 3974 45 4817
1967 1.8964743608097596 3.1882403301463866 7.0248980595127559 130 109 106 0.85726216765004404 41 3480 4 4867
1971 1.9634110951606134 2.9653912890046623 5.6012958817230993 41 24 25 0.15731651166139604 24 5273 4 4913
6714 0.33457090558464081 3.5986776028521796 6.927020882763685 156 120 98 0.75457463423436411 12 5264 33 5325 9 6414
1973 1.0342484775773799 3.3611662569444576 7.1896355056402008 123 76 48 2.0688599809108013 41 2894 4 4928 6 2428 17 3531 1 2237 35 2816 48 2449
2055 -2.6137940214212603 1.3684430624063169 9.7585726117584954 138 98 62 0.41481939231714487 45 321 3 267 6 172
1974 3.0482815919188861 3.4933129119122515 7.3487589665081243 138 108 98 1.83966033288117 24 4376 4 4942 6 4866
1975 3.2571125517253599 3.4770380897164435 7.1049872992892658 151 118 109 1.1884265801720564 24 4398 4 4965 5 6193 6 4076 2 3116
1977 3.1198268261874968 3.497306701388891 7.0433519727574296 160 127 118 0.54682061474304089 24 4419 45 6092 4 4973 3 5332 5 6177 2 2355
1979 3.600853668929743 3.5690677371837025 7.0787999008820055 126 94 76 1.2161811236278626 24 4435 45 5035 4 4991 6 4095
2568 4.4887327551709744 -2.8134724663433324 16.088112887112644 87 98 104 1.542745664549136 3 1052 4 732 5 1040
1981 -1.4994220627282118 3.5381913366280804 7.1285083879397995 168 124 89 0.43294612795539444 45 7007 5 6793
2562 1.271868545807407 3.4305637069488024 7.1812453671408907 129 85 60 0.82680544388448851 5 895 6 613 2 612 17 522
1982 3.1175543737679448 3.587494278681417 6.9344468475574459 114 82 71 1.1208233566403634 45 5084 4 5015 5 6078
1983 -1.3709874859393274 3.4405301870839038 6.6343496538175994 130 85 50 1.8905330545228622 24 3642 3 5214
1985 0.067870412708922565 1.9520591824617002 9.1181330719057669 124 69 74 0.9566091507236768 45 5721 4 5034 6 4727
6736 5.6130694596274386 1.0199356997030931 10.276227187755596 221 177 148 0.2117672583426399 12 3018 33 5736 22 2377
6433 1.9400991435491359 -0.43229168128438089 12.074189075721634 129 84 53 0.42809617522029847 12 519 33 524 22 562 9 207
1987 -0.22649371229539109 1.6362614168403875 9.3055781628257357 228 216 194 0.44610110317943108 45 4542 4 5096 3 4416 6 3929 17 3311 1 3670 35 2520 68 1496 72 2692 71 2029 74 2262 64 1131
1989 -5.9544023926436918 -2.8477430564458839 17.071915577155686 64 68 54 0.74195033365326468 24 2745 45 3654 4 5115 3 4352 5 3917
2135 3.3628853241778622 1.3325564042002989 6.1975268967758126 125 91 82 0.35571299585621841 24 1127 3 765 5 1937
1990 13.116027841499765 -2.727897714027069 26.917702803294613 120 71 77 0.9617362130524848 24 3902 45 5509 4 5157 3 3184
3364 3.3778451141246091 1.0102714511083144 6.5104146060811763 135 99 78 0.44368824888281222 2 437 7 244
2345 -0.44573040915144468 1.7422137710805929 9.164376673373658 222 228 228 0.51394756987203982 24 2938 45 4565 3 3250 5 3651 6 3211 7 2406
2648 5.2298214433488548 2.0334706662757185 9.1576501763155065 145 109 85 0.51404418582177602 3 3058 5 3390 2 2927
2004 2.7478172511781431 0.71603040206403756 3.3588663127456311 48 37 33 2.622108697460757 45 4006 4 1503
7467 1.1490908209832182 1.6751930244823541 6.5241961381728295 111 85 77 1.8806864980475069 72 270 71 277 64 315
6746 4.9461724209782432 1.7265446492439878 9.3983149287051724 147 97 74 0.33861854620640697 12 3713 33 5867
2005 1.1217190767186433 3.7779132640356354 6.9495859195895626 150 109 81 2.0752465826690556 45 2149 4 1692 6 2006
2215 14.555136574895988 -5.1655968744732741 29.765917756802271 103 73 83 0.23608611711125749 4 1152 24 1470 3 1347 45 3643
3380 0.59229706030148632 -0.20659354349243172 7.0201781314633518 143 187 222 0.79017854805837251 7 437 12 492
2361 1.688320286385885 2.5384977470963279 6.258169108927107 157 128 132 0.51435932436506482 4 3135 24 5012 3 3683 17 3856
2011 3.6954643972181205 3.6163342399751848 6.8950268516653788 189 142 115 0.1147276912603364 24 4472 3 5079 45 6153
2728 4.4385007042644755 2.6517695258266292 8.2762991963212844 122 85 66 0.71682641755837029 3 4734 5 6903 7 4512
3379 -6.1372595481066448 -0.81661656763857937 18.254248225179111 11 16 15 1.6157631295947164 5 1052 24 524 7 434 45 402
6030 -0.30150157636438374 0.53999764208337764 10.93823319497473 121 86 60 0.85113882991257794 37 643 11 1766
2079 3.6281119511326207 -5.4604153552969974 20.982175632524893 30 28 38 0.5109786351887452 4 425 24 406 3 462 2 544
2014 3.6430148367010289 2.1790337686132739 6.5084306845855311 100 73 64 1.9323693628934848 4 8 45 10 3 11 5 7
2021 0.37090996735073345 1.9976833067944506 7.7447401276971366 96 70 57 1.6946958768589564 4 28 3 45 5 32
2167 -5.5307040369021943 -3.1457818462336906 17.090065425524564 227 236 215 0.23601007274407276 4 1448 3 1050 24 1458 5 1979
2027 1.498492541159459 0.57178383804585831 5.9814324874178784 86 140 204 1.5305469071509237 4 88 3 88 5 120 6 40 2 83
2680 4.2338740448534589 2.5113688700847776 8.5461256849460359 91 63 51 0.56180112812584415 3 3570 5 4603 2 2368
2028 -5.956651662975605 -3.1027751378278197 17.058460059935516 183 192 161 0.22156882868579098 4 74 24 79 3 95 5 89
2095 -0.27879369769780643 1.1663799888860418 2.1588989433675101 149 114 80 0.82718917212028076 24 626 3 528
6271 2.2667994436240435 1.0552314140697308 1.7772911631602364 121 87 59 1.9534960876516161 7 1470 12 1216
2030 5.4325136411689545 -3.2531151376430913 14.601596454915745 65 76 78 1.5242029061360269 4 137 24 153 3 111 5 111
2033 11.341384604388095 -3.3408530071800957 25.32178461048295 1 1 3 1.8554524311886549 4 148 24 264 3 120
6778 -0.023749535185149093 3.344863580511372 7.2451425508088327 167 130 104 0.21060491135072268 12 4358 33 7024 22 5196
2037 -1.7015931526918533 1.9051980793269767 9.1470785974626221 158 114 76 0.65122082250657609 4 115 3 135 5 138
2119 2.3293727693169055 -0.11553065922861898 6.277477093029562 85 137 210 0.6226538569694825 4 712 3 658 5 567 2 465
2038 0.2921097977383616 1.9141752313485305 8.1570449752696685 90 64 51 0.83815964185781711 4 77 3 136 5 252
2039 -3.871913933373353 2.5377422767879301 8.3387688485352811 145 103 73 1.3581940796013394 4 126 3 140 5 143 7 117 2 142 12 105 33 116 22 164
2043 5.922977968929926 0.20210372374225488 11.16893065742339 157 118 85 0.64861550674220947 24 248 3 176
2045 -0.64763405220702908 1.0187421323254338 10.100902755328882 121 91 65 1.2150537944642534 24 182 3 190 2 477
2626 3.0915788985583856 3.2884741502547969 7.4290394667725339 97 66 55 0.80469812862566836 3 4023 5 2740 2 2514
6062 0.25391059046269848 0.46133715769974176 7.4320981628502318 160 161 165 0.0756656562875231 35 1964 11 2656
2111 -2.5287945589390652 2.0416309044808734 9.0580455693486108 172 129 87 0.0060403278882154819 45 578 5 803
2046 -3.1171921454776408 1.193023071065739 9.9943429910707593 148 109 68 1.6793710709032634 4 176 24 105 3 191 5 177 2 164 7 151 12 111 33 165
2047 -0.9783840515295753 1.3650467639270358 9.8342151132463229 158 118 82 0.75999677043024094 24 110 3 197 5 133 2 176
2049 1.4192965621338853 3.718303347925811 7.0382104007240391 136 91 60 0.60684857933258551 4 187 2 215
2992 0.59336131765526101 3.6849800612644374 6.8082657644547506 119 78 48 1.6673823128118761 41 2405 45 3239 6 2584
2051 -4.0330439549085915 0.59751743098253385 10.961439675315351 122 85 56 0.8036740745319062 4 337 24 221 3 242 5 281
2052 5.261888064682708 2.0522994169153153 8.944683765604255 147 105 77 0.49566275420142752 4 366 3 252 2 322
3511 4.1035966643092063 2.5293088902932515 8.3720237270095712 104 71 56 0.51705217374662615 5 6961 33 6227
2053 5.5586205565732589 1.9585101972396692 9.3868586747557963 144 99 76 0.81916552553554867 24 321 3 254
2996 1.4488690802023483 2.9640187853199031 7.2701720936617136 0 0 0 0.23511108668742073 4 4743 41 2785
2054 5.6924428956585009 -3.8596122561860295 15.145940895523434 30 35 44 1.7896197372025109 4 238 3 259 5 315 37 223 46 147 11 166
3505 -2.1717492298527907 3.7838231201093282 6.7216958343315536 155 110 80 0.86896944019525546 3 4294 7 4085 33 8034 9 6963
2057 5.0171031774031052 0.62982857008128867 10.5973392020005 132 97 77 0.212710321030464 4 258 3 271
3000 15.246184331113163 -4.7365936468402072 27.995479616972386 142 124 134 0.45873082602061022 4 1154 24 1471 41 1226 45 1652 6 2986
2059 -3.3506657021929862 0.39050545426383332 11.215254184477557 121 88 55 0.35907725799008389 4 262 3 285 24 227
4026 0.91275031241203652 1.3336495900506362 6.5945347750658136 181 182 180 0.47946746603478479 17 3683 1 4414 35 2006 48 3130 37 2518
2060 5.4662716996904868 -3.5871947187765807 14.86830786167328 162 149 156 0.57533985526014109 24 286 3 294 5 248
3519 6.3607703631319588 2.1609301191365007 12.055879631614962 136 95 74 2.5511390747809224 5 317 7 720
2061 -6.1352698186388119 -2.8018596829263425 17.242998095656706 18 18 16 0.36773531546685567 4 287 24 268 3 307 5 442
2062 6.4361186663883752 -2.7592015615006078 14.255796063632152 64 76 76 0.27352851409413526 4 274 3 311 24 284 5 296
3513 1.1106591252666738 -1.1232886905064254 7.7380364300294753 65 107 170 1.3343753431291054 3 157 5 158 2 203 7 99 24 155 4 219 17 175 1 146 35 179 46 162 71 123 64 147
2063 -2.5104489602015105 -3.9788999142279282 18.968560045365813 119 106 72 1.4069391650053666 24 279 41 253 3 312 6 267 17 273
2065 4.5071625966445392 2.5602365325705154 8.171707934071847 147 105 82 1.6594355833102354 4 227 3 334 5 340 2 225
2944 13.766023414211579 -2.4857887694521925 26.317676032990367 103 101 99 0.84888132353957624 3 1090 24 1223 6 1516 4 681
2067 6.3035388241794879 0.22372439598019708 11.371898759961699 123 89 64 0.34530995633241823 24 519 3 354 5 368
2068 -3.8756755874807824 0.71075545408871699 10.599155335583008 162 120 79 1.1913573253131469 4 630 3 357 7 442 12 427 33 307 9 371
3463 -2.1047487992927087 4.0426378798987823 6.3553709720024676 190 134 101 0.060101761918600977 5 1267 7 2212
2069 3.2792785803711726 0.94637676486186251 5.5632226795956186 138 100 80 0.4825611655204865 24 234 3 362
2948 15.422912596211976 -1.9498289704287539 26.529625012269573 78 5 18 0.50241355186288306 4 671 24 692 45 847 6 1522
2070 5.2349508860454499 2.4441381590564464 8.4808686147449173 178 129 89 0.69194279521078594 4 374 3 394
3457 -1.2758716112894517 4.0441053723954958 6.3240891065101295 157 109 71 0.48845461621124137 5 2372 7 2102 12 2958
2073 3.8267374297128152 -5.0609571253539283 20.039869709298479 13 17 29 0.96002276765588535 4 458 24 407 3 432 5 593
2952 19.55203742981778 0.050716340776639578 28.820248710270072 126 109 99 0.78824235444894508 24 1257 45 1412 6 1548
5525 24.256860235791486 4.5382948268658172 15.323789876576692 83 68 48 0.99942576812528883 35 816 46 712 11 683
2074 5.9046431547276441 -3.1142158268878104 14.639268211767259 88 99 101 1.3638503036086738 4 468 24 774 5 3795 4 4279
2075 -6.0314082809312284 -2.9266906604854754 16.676737948479467 38 33 30 1.1455394770087985 4 479 3 438 24 420 5 586 2 393
3978 0.019188890101025254 0.8919116108591949 8.0762057313007833 108 86 88 0.40016250667406511 17 4622 1 3512 35 3109 48 3774 37 2588
2076 15.493415501310571 -4.9217706606678862 30.646631462632335 104 99 103 0.32458123018433688 4 492 24 730 45 1338 3 442
3471 4.3787535319809328 1.1186551253756036 10.143951291749891 176 134 117 0.46291137853195119 5 4011 7 2443 12 2826 33 5269
2077 15.047373880813366 -4.6183723170463571 30.267887493557609 24 24 26 1.6424200493212346 4 494 24 484 45 885 3 443
2078 5.709361243321208 -4.4286869238342117 16.863995656844303 10 20 20 0.39705770650105238 4 417 3 459 5 742
3465 -1.2727848698582536 3.7144127407420338 6.5615997167423519 180 127 89 1.4823873065356501 2 1500 12 1553 33 8082
5827 5.0066980957708154 5.4012905613963405 4.6713694380316078 105 63 21 0.85704088913416987 48 3964 46 4152
2081 5.2441470385331508 -3.3262987190269864 14.695453738203934 90 92 97 0.85484016854796308 4 461 3 465 5 588
2896 16.812394060599321 -2.5723604835641716 28.145960986625511 157 138 140 0.54570491045892633 4 1189 24 1226 45 3706 6 1159
2085 5.7648605492205229 -1.7307938411806474 10.133109034263025 23 23 23 1.0108710535038887 4 298 5 1992
2900 19.317028298564857 -5.4940925939731615 28.943535150169435 4 6 5 2.1013625416314645 24 1175 45 4270 6 1188
3783 4.9796743617405159 3.5372498172339619 7.0871770115981256 102 67 35 1.6156836594172446 41 1732 1 1550
2086 4.2719616808357497 -2.6083689571285245 15.476624224016616 47 57 65 1.2793029896588888 3 478 5 448 2 276
3409 -0.29696180819916185 4.0789362058312877 6.4092578650895735 201 159 135 0.61375498976274523 2 1047 7 964 33 2299
3776 3.1674230290453544 1.077218465112159 5.6985346505123484 122 93 73 0.13513174820579116 45 826 46 293
2091 13.557760153474623 -3.9171339311208784 29.198417931447377 13 8 12 0.84118455444638607 4 502 24 492 3 500 45 381
3930 1.2166855997522088 2.1700936769275487 6.583725204161774 193 163 169 1.9484284767602329 45 5750 1 2674 48 2080
4821 1.166484920986437 1.9464021458783152 5.773512179130349 227 184 193 2.9310599733729998 17 3744 48 4875 37 4260
2094 -3.779225791179551 0.54556037619568354 11.026378813984717 121 87 50 0.055983577152948855 24 628 7 827
3417 -9.1688926365795282 -1.0907467915071218 16.35182009321036 39 47 102 1.3741524735864805 3 2816 5 3763 7 1150
5539 0.3233618189080058 0.79811651074511925 7.2698872622524489 81 64 62 1.5258453289823497 17 4574 35 906 46 817 11 4407
2096 1.4233943605406072 -0.83096351436907456 7.1156456115889233 125 181 235 1.2023054235914457 4 472 3 531 2 279
4818 -0.38469902752161778 0.27853044880884215 11.134569610637641 139 95 72 1.720448063809787 1 3500 48 4864 37 3659 46 2374
2101 1.7398569377971975 2.362627240369942 6.0396310122912551 192 196 197 1.4435059505826218 4 587 3 563 5 1215
2980 1.3485346228986821 3.1618020185719122 7.2077429612109603 0 0 0 1.3296389827592809 4 2222 45 2912
3799 3.0297475418007633 -0.68253046501262227 7.9193124679886218 115 174 232 0.47990411855877829 17 112 68 312
2102 4.9685881934437726 2.2527324084269646 8.5886816187032657 138 92 68 1.4950588741746917 4 920 3 575 5 469
3489 -0.52592502118726003 3.9432965095636154 6.4631414174722792 163 119 91 0.86461821501445368 2 1219 7 2916 12 3091 33 5203 22 4631
3792 -1.6118034657782003 2.361392962582419 9.2333901364219262 159 114 80 0.85665639892637635 17 61 1 29
2107 5.98952607808494 0.89153791565835538 10.432830585932985 128 86 62 0.73912781949701489 4 342 24 518 3 614 6 506
4010 -1.2853993486584308 -0.26380553364857856 5.6840734040888261 197 164 145 1.7900964701900874 6 802 1 4281
2108 -3.6588696595285493 1.1097964827166396 10.01175031090669 141 98 63 1.1287796953234306 24 331 3 616 5 541
2109 3.9392555134982117 -4.4841777446445121 18.45846729509951 4 8 20 1.3389069480906632 24 777 3 622 7 472
2988 6.5633464900102112 1.8151190979751444 9.3541183407336881 121 93 71 1.4037742926139349 3 3012 24 2191 6 2307
3807 0.36496256337481425 1.5731505386514772 7.517960214229487 41 35 34 0.74662083173508353 17 235 1 229 35 224 48 239 37 217 46 192 11 202
2110 4.7826924356570881 -3.5304168049705216 16.958410659625144 160 156 170 0.59459160811438094 4 741 24 472 3 623 5 669 2 455 7 482
3497 4.3516557761695118 2.2749303628788886 8.6671801534734936 172 131 112 0.23919212948775556 2 3294 7 3658 33 6111
3800 27.590315250573838 1.2142639311189307 27.239259997548448 176 181 177 1.3132936285147554 17 124 41 121 1 117 68 121 72 105 71 83 74 126 69 125
2112 9.2622596166047018 -2.5745691165241431 20.524814165021787 49 44 41 2.2011523740702255 24 2764 3 634 5 2017
2115 5.3668510436821784 -3.1941091917177382 14.448286012756459 60 70 72 0.33336637166177346 4 1115 3 647 5 761
4082 1.0629940460801959 1.2432392274827364 6.5808637986066278 94 76 77 2.4775670986372065 6 371 1 657
2116 16.712878576899183 -4.5131046297976223 32.727597964089178 92 75 83 2.1155175145060796 4 700 24 718 45 479 3 650
2117 14.416168831360547 -4.8144664300984044 30.71821920294148 16 14 15 0.42120373486224583 4 710 24 1200 3 656 45 1343
3060 0.1064362747270743 0.74063471232899103 7.7182536968431794 119 119 120 1.0360669492646426 41 2024 17 1381 41 1277 1 2081 35 1435 37 1907 46 2205 11 2032 72 1515 74 2939
2118 14.926211078944196 -4.7818680533729347 29.77363255428428 27 29 31 0.30258479742021205 4 711 24 1196 45 1337 3 657
3569 -1.3178810600917503 1.6794851730482461 9.4246803663393841 129 88 66 1.1192864478715403 41 320 17 318 1 380 48 317 37 312 46 299
2121 15.732596871361325 -5.5892513638408925 31.274554384629177 70 75 79 0.88010790886986823 4 767 24 1185 45 1647 3 662
3064 1.161067915366744 1.3309163095859486 6.2868484067515871 69 59 60 2.50456844956144 4 4503 6 3869 2 2762 7 4574
2122 4.8603165189043516 -3.4685093935603031 16.747526723696563 79 83 92 0.83440028219014262 4 740 3 675 5 686 2 857
2123 5.8381002746469672 -2.9069162236750192 14.266506746527568 80 91 93 0.26781416329023522 24 898 3 677 5 674
4090 2.534222740098083 6.1335604808269215 11.045928820467758 147 119 115 0.03240027162563433 6 1749 1 3221
2124 5.0130394672324208 -3.7128317304155125 16.758485867201163 150 149 157 0.86855386752025032 4 746 3 679 5 1029 2 599 7 1123
3583 5.5282668659208838 3.5370925729646756 7.0088764363026792 134 94 69 0.66988293183110914 41 808 17 585 1 1208 35 922 68 478 72 844 74 1135
2125 3.7739845417671019 -4.257638766260917 18.513617491474751 4 8 20 0.43424535318914509 4 747 24 771 3 680 48 515 37 436
3068 -0.2102348419677896 1.3267580791974369 9.6245954011553128 252 183 201 0.23563016948625409 41 2071 45 4492 6 3891 17 3287 1 3591 35 2095 48 3326 37 2722 46 2533 11 3017 68 1297 72 2598 71 2054
2126 5.8775356456825048 -3.078827655494988 14.237357461746129 102 113 115 0.5842125513176476 4 1118 24 1151 3 681 5 734
2127 5.7958531272840776 -3.1187198357572963 14.271209609518305 69 80 82 1.7210276035025207 4 748 24 1149 3 682 5 1982
2129 3.408276204247664 -4.7859534594531024 19.856983459677544 50 50 62 2.2624999895416691 4 465 24 467 3 684 5 747
3008 18.56570467477578 -2.7535034401305207 27.767179449059014 226 184 173 0.25789520147356715 24 2789 45 3691 6 3031
3366 1.1793234291382879 1.5556398878261051 6.351695980614255 140 138 141 1.4117138317281248 2 183 7 254
2131 3.6881365273664151 -5.210107126974874 20.349777846681015 58 57 70 0.92260038213550577 4 1112 24 778 3 689 5 1022
4034 0.96451663137255539 1.6132814331007743 6.6095741396145602 103 89 80 0.64643555333395863 17 4696 1 4482 35 3392 37 4132
2133 5.789537769971532 -3.7322491165631546 14.616177327903531 21 33 39 0.3476914959492719 4 639 3 692 5 595
3012 15.876000672426082 -2.4781875865411735 27.361323014056278 96 38 46 1.6834651071844666 4 1513 6 3039
2137 1.5907518716356865 3.3999421198392703 7.2744485860684023 90 56 31 1.5482688459327303 24 865 3 773 17 1833 1 1846
3016 19.090566675306423 -1.8072484531327957 27.531943429508061 44 36 43 0.25126564387751243 24 3643 45 3724 6 3048
3374 1.4706184041649155 3.4378835153620875 6.980872350813673 0 0 0 0.16491120269390164 4 194 5 223
5589 6.9284797708575363 3.2189338876356626 7.3980105980012674 119 74 45 1.8775242938998915 37 1007 46 1418 11 3541 48 3601
2138 4.3984391192764694 3.2581909334381578 7.6200388820099692 148 103 74 0.91279761627510669 24 906 3 782 5 922
3883 26.157594661112761 1.1062795927529727 27.695938779679643 140 126 117 1.0427476392225719 17 1071 41 1259 1 1392 72 1317 71 687 74 1047
2140 5.0205861706197092 2.8010940208853552 7.8838824778842485 176 126 93 1.0258531203622629 24 788 3 801 5 884 2 1041
2861 -2.5017910220183426 2.1679606150287025 8.8597357559198322 143 108 69 1.0782553348745627 41 1066 6 672 17 516 7 1432 1 817
2142 0.6898098327037071 2.8370017168786323 8.774054419116851 76 48 34 2.2501588331827937 24 1350 3 815
3529 0.51749866701001157 1.2599381686557376 6.9787124436328751 205 215 216 1.2973943734498445 41 4 35 3 48 6 37 2
6094 11.653529432555397 5.1196138741247408 6.6153388528822195 52 56 55 0.13001939659123968 48 3583 11 3527
2143 4.5025221813466416 2.3833956298828944 8.5472488559363313 91 61 50 1.1061706887570544 4 914 3 826 5 851 2 726
3372 5.5313364886360636 2.3959252063888266 8.7932347657404701 178 124 88 0.75416171472687032 2 305 12 294
2144 4.6097424593557097 2.3394023436321993 8.6000715590014494 92 64 53 0.64106010851255435 4 916 3 830 5 849
2145 1.2355777245838295 2.1158184017959449 6.5202874299041831 181 160 167 0.81328554226597027 4 1299 3 834 17 505
2960 -0.053991594248840855 1.3779881789054702 9.5955867133972053 248 197 209 0.21779154692499911 41 1304 6 1614 17 1359 1 1984 35 1512 48 1370 37 1789 46 1882 11 1741 68 807 72 1073 74 1233
2146 5.5997075300174908 1.7505469955537121 9.3208742385295249 102 72 46 0.30838218906433412 24 1284 3 845 6 1269
2147 -1.679276347954801 1.7347197931976492 9.2256023728175922 154 118 79 1.0859839190041976 45 1452 3 859 5 1190
3986 0.10308688041078139 1.2003077683496555 9.6378737488357782 157 133 126 1.7003165396464612 41 3252 72 2910
2148 2.0239013786271189 1.1935567504836631 1.9755004354463495 98 152 216 0.35478252409792027 45 4391 3 877
3479 -2.0640796951417584 3.8662079654216313 6.6457406328134834 177 128 95 0.31289277488227324 3 2712 7 2584 12 2754 33 4695
2149 -3.8801153151676622 0.50393230016333379 10.941328794137666 160 121 80 0.79221026205521994 24 488 3 894 7 830 12 813 9 479
2150 13.630748436285645 -2.2578606908339975 26.935223797503639 132 127 127 0.73827969999229126 4 674 24 693 45 806 3 906
3473 4.3923762222889895 1.2720455237845099 9.7828918881793179 173 128 105 0.97450471704807984 2 1785 7 2453 12 1568 33 5375
2153 -0.87738505553874224 3.7933925859238067 6.7090404643133192 142 90 51 0.10606275382259536 3 958 6 1956
2968 7.1819772875471592 2.6899372993802602 8.6414838538238392 145 104 76 2.1021350947210617 24 1329 6 1650
2154 4.894873030342473 -3.3677518971201454 16.65851261534776 105 113 123 0.92168817385720736 4 1130 24 1163 3 965
2155 13.700373485756682 -2.1896778603228735 26.848305311220656 108 102 102 0.57593848935459691 4 1519 24 1537 3 997 45 1155
2156 4.1037636309249166 2.4217413302835578 8.530356490713201 82 60 52 1.3370628834020473 5 1220 2 959 7 2890 12 1397 33 2894 22 822
3487 -1.432892195012053 4.1772235715590869 6.2592869223226666 192 146 113 1.4473747230126484 2 1233 7 2879 33 2036 22 4991 9 7100
2158 5.5077881292525639 -3.6568784798005995 14.904087481839397 171 166 169 0.77197974657968937 4 1110 3 1031 5 1964 2 1129
3481 -1.0088650800671206 3.5969113032895201 6.9782087792719807 143 96 54 0.97036863526390282 4 1628 7 2609 12 1546 33 4810 22 1817 9 3085
2159 3.8844781463225564 -4.9596212657920855 19.290482831593394 47 50 63 1.0880426227149389 24 780 3 1032 5 1021
5603 3.9577282935175826 -3.0704746497317257 17.706209956490895 86 88 87 1.4642772466691498 37 3445 46 1534 11 2571
2160 4.073646103840205 -4.6012690554862079 18.543639317724381 30 40 50 0.0087259559316835225 4 459 5 591
2161 -2.6226490453381732 -4.4877527061723708 18.76748319240787 100 95 63 0.87751672955972959 4 1121 24 1437 3 1034 5 951
3040 0.4774687722247612 -0.88228291629631006 7.7368823874907688 148 171 200 1.3812364878305947 3 4351 6 3422 5 3919 45 5457
2162 5.8962301737483331 -3.2976778740256085 14.571776026229719 105 115 117 2.0119390209283528 4 750 24 1144 3 1035 5 759
2163 4.0007346314855718 -4.1971373531277356 18.056240224392944 62 60 74 0.82888342131100923 24 1826 3 1039 5 1972 2 1130 48 1529 37 1441 46 3174
4066 1.1046385634280367 1.5994952795756527 6.4745737331983912 78 63 64 1.5459264359607199 17 1680 1 5152 35 1462
2164 4.0084929124191904 -4.3595019072172274 18.853609794011746 8 16 27 1.7072503033778768 24 773 2 602 7 1155 12 4141
